-2518.86119195389,-2518.93429600496,-2519.16398025797,-2519.40652703303,-2519.49535744996,-2519.15239413062,-2518.7729387881,-2518.38907381097,-2517.99308457854,-2517.73599189146,-2517.80381537105,-2517.7369816705,-2517.5809734606,-2517.54209036428,-2517.5680998341,-2517.67147235911,-2517.89044381975,-2518.1617062043,-2518.37507866874,-2518.59690258964,-2518.84794024045,-2519.1170629823,-2519.40431924469,-2519.62015503667,-2519.73585485879,-2519.9307785353,-2520.22392656108,-2520.64351790028,-2521.20171826308,-2521.86517813378,-2522.44184842404,-2522.89089597597,-2523.1810932537,-2523.32801674675,-2523.36143487223,-2523.33423258533,-2523.24290654551,-2522.84858735707,-2522.17339256554,-2521.49818118625,-2520.84141743022,-2520.16828450998,-2519.70741781714,-2519.45861691209,-2519.16585591426,-2518.81960958909,-2518.50080280719,-2518.3306370068,-2518.30894882868,-2518.38596764773,-2518.50725057038,-2518.72432102578,-2518.95048167308,-2519.35825133771,-2519.85991168326,-2520.47789061339,-2521.12667708567,-2521.57279751473,-2521.64450039494,-2521.47854908603,-2521.19990651561,-2520.79500813287,-2520.47936587785,-2520.27812426919,-2520.17317245989,-2519.98897308577,-2519.60925909122,-2519.16382890015,-2518.6354535646,-2518.06826566989,-2517.73040409984,-2517.43532011215,-2517.18051329996,-2516.95879801314,-2516.61529477799,-2516.05320141377,-2515.67473218879,-2515.27301705028,-2514.85373095414,-2514.56647768521,-2514.26918533997,-2513.98790665669,-2513.67009353565,-2513.30649393056,-2512.87950739884,-2512.38814623772,-2511.79202091447,-2511.22960772044,-2510.60963177752,-2509.94822984641,-2509.33948955489,-2508.72476005281,-2508.09439194264,-2507.52690872689,-2506.9170314772,-2506.21596661316,-2505.43489794389,-2504.63385591406,-2503.82768303341,-2503.27186262478,-2503.02030223404,-2503.00513915292,-2503.00771229783,-2502.97489020265,-2502.72109110974,-2502.26446040766,-2501.66070159641,-2501.09886486136,-2500.63394788188,-2500.02958554921,-2499.28157453205,-2498.43411337795,-2497.56523108628,-2496.75275105033,-2496.24320907288,-2496.0445534535,-2496.16118658103,-2496.48184871379,-2496.84676107414,-2497.22631629978,-2497.47512784421,-2497.51281049518,-2497.29014361816,-2496.93534237688,-2496.52867004147,-2496.15710410061,-2496.01733553675,-2496.17952439468,-2496.48415634598,-2496.82307645075,-2497.17739600687,-2497.36922899387,-2497.37743692036,-2497.31062560065,-2497.20290918623,-2497.05584702197,-2497.03815340259,-2497.48518082307,-2498.8833079903,-2500.49874313402,-2502.33136492195,-2504.22542144577,-2505.8453994516,-2506.9864469624,-2508.31056766237,-2509.4983177422,-2510.55820613869,-2511.57878711252,-2512.34701527629,-2513.10535380397,-2514.17263198224,-2515.31745829255,-2516.35422741264,-2517.21724440109,-2517.8624716029,-2518.66227290322,-2519.83816263147,-2521.48577665878,-2523.14840425431,-2524.72204121745,-2525.83491577623,-2526.55985209524,-2526.93092430636,-2527.40432624222,-2527.96218196768,-2528.57997285724,-2529.1859408076
-2520.85719993792,-2520.93030398899,-2521.159988242,-2521.40253501706,-2521.49136543399,-2521.14840211465,-2520.76894677214,-2520.38508179501,-2519.98909256257,-2519.73199987549,-2519.79982335508,-2519.73298965453,-2519.57698144463,-2519.53809834831,-2519.56410781813,-2519.66748034314,-2519.88645180378,-2520.15771418833,-2520.37108665277,-2520.59291057367,-2520.84394822448,-2521.11307096633,-2521.40032722872,-2521.6161630207,-2521.73186284282,-2521.92678651933,-2522.21993454511,-2522.63952588431,-2523.19772624711,-2523.86118611781,-2524.43785640807,-2524.88690396,-2525.17710123773,-2525.32402473078,-2525.35744285626,-2525.33024056936,-2525.23891452954,-2524.8445953411,-2524.16940054957,-2523.49418917028,-2522.83742541425,-2522.16429249402,-2521.70342580118,-2521.45462489612,-2521.16186389829,-2520.81561757312,-2520.49681079123,-2520.32664499084,-2520.30495681271,-2520.38197563176,-2520.50325855441,-2520.72032900982,-2520.94648965711,-2521.35425932174,-2521.85591966729,-2522.47389859742,-2523.1226850697,-2523.56880549876,-2523.64050837897,-2523.47455707006,-2523.19591449964,-2522.7910161169,-2522.47537386189,-2522.27413225322,-2522.16918044393,-2521.9849810698,-2521.60526707526,-2521.15983688418,-2520.63146154863,-2520.06427365392,-2519.72641208387,-2519.43132809618,-2519.17652128399,-2518.95480599718,-2518.61130276202,-2518.0492093978,-2517.67074017282,-2517.26902503431,-2516.84973893817,-2516.56248566924,-2516.265193324,-2515.98391464073,-2515.66610151968,-2515.30250191459,-2514.87551538287,-2514.38415422176,-2513.7880288985,-2513.22561570447,-2512.60563976155,-2511.94423783044,-2511.33549753892,-2510.72076803685,-2510.09039992667,-2509.52291671092,-2508.91303946123,-2508.21197459719,-2507.43090592792,-2506.6298638981,-2505.82369101744,-2505.26787060881,-2505.01631021807,-2505.00114713695,-2505.00372028186,-2504.97089818668,-2504.71709909377,-2504.26046839169,-2503.65670958044,-2503.09487284539,-2502.62995586592,-2502.02559353325,-2501.27758251609,-2500.43012136199,-2499.56123907031,-2498.74875903437,-2498.23921705691,-2498.04056143754,-2498.15719456506,-2498.47785669782,-2498.84276905817,-2499.22232428381,-2499.47113582824,-2499.50881847921,-2499.28615160219,-2498.93135036091,-2498.5246780255,-2498.15311208464,-2498.01334352078,-2498.17553237871,-2498.48016433001,-2498.81908443478,-2499.1734039909,-2499.3652369779,-2499.37344490439,-2499.30663358468,-2499.19891717026,-2499.051855006,-2499.03416138662,-2499.48118880711,-2500.87931597433,-2502.49475111805,-2504.32737290598,-2506.2214294298,-2507.84140743563,-2508.98245494643,-2510.30657564641,-2511.49432572623,-2512.55421412272,-2513.57479509655,-2514.34302326033,-2515.10136178801,-2516.16863996627,-2517.31346627658,-2518.35023539668,-2519.21325238512,-2519.85847958693,-2520.65828088725,-2521.83417061551,-2523.48178464281,-2525.14441223834,-2526.71804920148,-2527.83092376026,-2528.55586007928,-2528.9269322904,-2529.40033422625,-2529.95818995172,-2530.57598084127,-2531.18194879163
-2522.85320792195,-2522.92631197303,-2523.15599622603,-2523.39854300109,-2523.48737341802,-2523.14441009869,-2522.76495475617,-2522.38108977904,-2521.9851005466,-2521.72800785952,-2521.79583133911,-2521.72899763857,-2521.57298942867,-2521.53410633235,-2521.56011580216,-2521.66348832717,-2521.88245978781,-2522.15372217236,-2522.36709463681,-2522.5889185577,-2522.83995620851,-2523.10907895037,-2523.39633521275,-2523.61217100473,-2523.72787082686,-2523.92279450336,-2524.21594252914,-2524.63553386834,-2525.19373423114,-2525.85719410184,-2526.4338643921,-2526.88291194403,-2527.17310922176,-2527.32003271481,-2527.35345084029,-2527.32624855339,-2527.23492251357,-2526.84060332513,-2526.1654085336,-2525.49019715431,-2524.83343339828,-2524.16030047805,-2523.69943378521,-2523.45063288015,-2523.15787188233,-2522.81162555715,-2522.49281877526,-2522.32265297487,-2522.30096479674,-2522.37798361579,-2522.49926653844,-2522.71633699385,-2522.94249764114,-2523.35026730577,-2523.85192765133,-2524.46990658146,-2525.11869305374,-2525.5648134828,-2525.636516363,-2525.47056505409,-2525.19192248367,-2524.78702410093,-2524.47138184592,-2524.27014023725,-2524.16518842796,-2523.98098905383,-2523.60127505929,-2523.15584486821,-2522.62746953267,-2522.06028163795,-2521.7224200679,-2521.42733608021,-2521.17252926802,-2520.95081398121,-2520.60731074605,-2520.04521738184,-2519.66674815685,-2519.26503301835,-2518.8457469222,-2518.55849365328,-2518.26120130804,-2517.97992262476,-2517.66210950371,-2517.29850989862,-2516.87152336691,-2516.38016220579,-2515.78403688253,-2515.22162368851,-2514.60164774558,-2513.94024581447,-2513.33150552295,-2512.71677602088,-2512.0864079107,-2511.51892469495,-2510.90904744527,-2510.20798258122,-2509.42691391195,-2508.62587188213,-2507.81969900148,-2507.26387859285,-2507.0123182021,-2506.99715512098,-2506.99972826589,-2506.96690617071,-2506.7131070778,-2506.25647637572,-2505.65271756448,-2505.09088082943,-2504.62596384995,-2504.02160151728,-2503.27359050012,-2502.42612934602,-2501.55724705434,-2500.7447670184,-2500.23522504094,-2500.03656942157,-2500.15320254909,-2500.47386468185,-2500.83877704221,-2501.21833226784,-2501.46714381227,-2501.50482646325,-2501.28215958623,-2500.92735834494,-2500.52068600953,-2500.14912006867,-2500.00935150482,-2500.17154036274,-2500.47617231404,-2500.81509241881,-2501.16941197493,-2501.36124496193,-2501.36945288842,-2501.30264156871,-2501.19492515429,-2501.04786299003,-2501.03016937066,-2501.47719679114,-2502.87532395837,-2504.49075910208,-2506.32338089002,-2508.21743741383,-2509.83741541966,-2510.97846293046,-2512.30258363044,-2513.49033371027,-2514.55022210676,-2515.57080308059,-2516.33903124436,-2517.09736977204,-2518.1646479503,-2519.30947426061,-2520.34624338071,-2521.20926036915,-2521.85448757096,-2522.65428887128,-2523.83017859954,-2525.47779262685,-2527.14042022237,-2528.71405718551,-2529.82693174429,-2530.55186806331,-2530.92294027443,-2531.39634221028,-2531.95419793575,-2532.5719888253,-2533.17795677566
-2524.84921590598,-2524.92231995706,-2525.15200421006,-2525.39455098513,-2525.48338140205,-2525.14041808272,-2524.7609627402,-2524.37709776307,-2523.98110853063,-2523.72401584355,-2523.79183932314,-2523.7250056226,-2523.5689974127,-2523.53011431638,-2523.55612378619,-2523.65949631121,-2523.87846777184,-2524.14973015639,-2524.36310262084,-2524.58492654173,-2524.83596419254,-2525.1050869344,-2525.39234319679,-2525.60817898877,-2525.72387881089,-2525.91880248739,-2526.21195051317,-2526.63154185238,-2527.18974221517,-2527.85320208588,-2528.42987237613,-2528.87891992806,-2529.1691172058,-2529.31604069884,-2529.34945882433,-2529.32225653742,-2529.23093049761,-2528.83661130917,-2528.16141651764,-2527.48620513834,-2526.82944138231,-2526.15630846208,-2525.69544176924,-2525.44664086418,-2525.15387986636,-2524.80763354118,-2524.48882675929,-2524.3186609589,-2524.29697278078,-2524.37399159982,-2524.49527452248,-2524.71234497788,-2524.93850562517,-2525.3462752898,-2525.84793563536,-2526.46591456549,-2527.11470103777,-2527.56082146683,-2527.63252434703,-2527.46657303812,-2527.18793046771,-2526.78303208496,-2526.46738982995,-2526.26614822129,-2526.16119641199,-2525.97699703787,-2525.59728304332,-2525.15185285224,-2524.6234775167,-2524.05628962198,-2523.71842805193,-2523.42334406424,-2523.16853725205,-2522.94682196524,-2522.60331873008,-2522.04122536587,-2521.66275614089,-2521.26104100238,-2520.84175490623,-2520.55450163731,-2520.25720929207,-2519.97593060879,-2519.65811748774,-2519.29451788266,-2518.86753135094,-2518.37617018982,-2517.78004486656,-2517.21763167254,-2516.59765572962,-2515.9362537985,-2515.32751350698,-2514.71278400491,-2514.08241589474,-2513.51493267899,-2512.9050554293,-2512.20399056526,-2511.42292189598,-2510.62187986616,-2509.81570698551,-2509.25988657688,-2509.00832618614,-2508.99316310502,-2508.99573624992,-2508.96291415474,-2508.70911506183,-2508.25248435976,-2507.64872554851,-2507.08688881346,-2506.62197183398,-2506.01760950131,-2505.26959848415,-2504.42213733005,-2503.55325503837,-2502.74077500243,-2502.23123302497,-2502.0325774056,-2502.14921053312,-2502.46987266588,-2502.83478502624,-2503.21434025188,-2503.46315179631,-2503.50083444728,-2503.27816757026,-2502.92336632897,-2502.51669399356,-2502.1451280527,-2502.00535948885,-2502.16754834677,-2502.47218029808,-2502.81110040285,-2503.16541995897,-2503.35725294597,-2503.36546087245,-2503.29864955275,-2503.19093313833,-2503.04387097407,-2503.02617735469,-2503.47320477517,-2504.8713319424,-2506.48676708612,-2508.31938887405,-2510.21344539786,-2511.83342340369,-2512.97447091449,-2514.29859161447,-2515.4863416943,-2516.54623009079,-2517.56681106462,-2518.33503922839,-2519.09337775607,-2520.16065593433,-2521.30548224465,-2522.34225136474,-2523.20526835318,-2523.85049555499,-2524.65029685532,-2525.82618658357,-2527.47380061088,-2529.1364282064,-2530.71006516954,-2531.82293972832,-2532.54787604734,-2532.91894825846,-2533.39235019431,-2533.95020591978,-2534.56799680933,-2535.17396475969
-2526.84522389002,-2526.91832794109,-2527.1480121941,-2527.39055896916,-2527.47938938609,-2527.13642606675,-2526.75697072423,-2526.3731057471,-2525.97711651466,-2525.72002382759,-2525.78784730718,-2525.72101360663,-2525.56500539673,-2525.52612230041,-2525.55213177022,-2525.65550429524,-2525.87447575588,-2526.14573814042,-2526.35911060487,-2526.58093452577,-2526.83197217657,-2527.10109491843,-2527.38835118082,-2527.6041869728,-2527.71988679492,-2527.91481047142,-2528.2079584972,-2528.62754983641,-2529.18575019921,-2529.84921006991,-2530.42588036017,-2530.87492791209,-2531.16512518983,-2531.31204868288,-2531.34546680836,-2531.31826452145,-2531.22693848164,-2530.8326192932,-2530.15742450167,-2529.48221312237,-2528.82544936634,-2528.15231644611,-2527.69144975327,-2527.44264884822,-2527.14988785039,-2526.80364152521,-2526.48483474332,-2526.31466894293,-2526.29298076481,-2526.36999958385,-2526.49128250651,-2526.70835296191,-2526.93451360921,-2527.34228327384,-2527.84394361939,-2528.46192254952,-2529.1107090218,-2529.55682945086,-2529.62853233106,-2529.46258102215,-2529.18393845174,-2528.77904006899,-2528.46339781398,-2528.26215620532,-2528.15720439602,-2527.9730050219,-2527.59329102735,-2527.14786083627,-2526.61948550073,-2526.05229760601,-2525.71443603597,-2525.41935204828,-2525.16454523608,-2524.94282994927,-2524.59932671412,-2524.0372333499,-2523.65876412492,-2523.25704898641,-2522.83776289026,-2522.55050962134,-2522.2532172761,-2521.97193859282,-2521.65412547178,-2521.29052586669,-2520.86353933497,-2520.37217817385,-2519.77605285059,-2519.21363965657,-2518.59366371365,-2517.93226178254,-2517.32352149101,-2516.70879198894,-2516.07842387877,-2515.51094066302,-2514.90106341333,-2514.19999854929,-2513.41892988002,-2512.61788785019,-2511.81171496954,-2511.25589456091,-2511.00433417017,-2510.98917108905,-2510.99174423395,-2510.95892213877,-2510.70512304587,-2510.24849234379,-2509.64473353254,-2509.08289679749,-2508.61797981801,-2508.01361748534,-2507.26560646818,-2506.41814531408,-2505.5492630224,-2504.73678298646,-2504.227241009,-2504.02858538963,-2504.14521851716,-2504.46588064991,-2504.83079301027,-2505.21034823591,-2505.45915978034,-2505.49684243131,-2505.27417555429,-2504.919374313,-2504.5127019776,-2504.14113603673,-2504.00136747288,-2504.1635563308,-2504.46818828211,-2504.80710838688,-2505.161427943,-2505.35326093,-2505.36146885649,-2505.29465753678,-2505.18694112236,-2505.0398789581,-2505.02218533872,-2505.4692127592,-2506.86733992643,-2508.48277507015,-2510.31539685808,-2512.20945338189,-2513.82943138773,-2514.97047889853,-2516.2945995985,-2517.48234967833,-2518.54223807482,-2519.56281904865,-2520.33104721242,-2521.0893857401,-2522.15666391836,-2523.30149022868,-2524.33825934877,-2525.20127633722,-2525.84650353903,-2526.64630483935,-2527.8221945676,-2529.46980859491,-2531.13243619043,-2532.70607315357,-2533.81894771236,-2534.54388403137,-2534.91495624249,-2535.38835817835,-2535.94621390381,-2536.56400479337,-2537.16997274373
-2528.84123187405,-2528.91433592512,-2529.14402017813,-2529.38656695319,-2529.47539737012,-2529.13243405078,-2528.75297870826,-2528.36911373113,-2527.9731244987,-2527.71603181162,-2527.78385529121,-2527.71702159066,-2527.56101338076,-2527.52213028444,-2527.54813975426,-2527.65151227927,-2527.87048373991,-2528.14174612446,-2528.3551185889,-2528.5769425098,-2528.82798016061,-2529.09710290246,-2529.38435916485,-2529.60019495683,-2529.71589477895,-2529.91081845546,-2530.20396648124,-2530.62355782044,-2531.18175818324,-2531.84521805394,-2532.4218883442,-2532.87093589613,-2533.16113317386,-2533.30805666691,-2533.34147479239,-2533.31427250548,-2533.22294646567,-2532.82862727723,-2532.1534324857,-2531.47822110641,-2530.82145735038,-2530.14832443014,-2529.6874577373,-2529.43865683225,-2529.14589583442,-2528.79964950925,-2528.48084272735,-2528.31067692696,-2528.28898874884,-2528.36600756789,-2528.48729049054,-2528.70436094594,-2528.93052159324,-2529.33829125787,-2529.83995160342,-2530.45793053355,-2531.10671700583,-2531.55283743489,-2531.6245403151,-2531.45858900619,-2531.17994643577,-2530.77504805303,-2530.45940579801,-2530.25816418935,-2530.15321238005,-2529.96901300593,-2529.58929901138,-2529.14386882031,-2528.61549348476,-2528.04830559005,-2527.71044402,-2527.41536003231,-2527.16055322012,-2526.9388379333,-2526.59533469815,-2526.03324133393,-2525.65477210895,-2525.25305697044,-2524.8337708743,-2524.54651760537,-2524.24922526013,-2523.96794657685,-2523.65013345581,-2523.28653385072,-2522.859547319,-2522.36818615788,-2521.77206083463,-2521.2096476406,-2520.58967169768,-2519.92826976657,-2519.31952947505,-2518.70479997297,-2518.0744318628,-2517.50694864705,-2516.89707139736,-2516.19600653332,-2515.41493786405,-2514.61389583422,-2513.80772295357,-2513.25190254494,-2513.0003421542,-2512.98517907308,-2512.98775221799,-2512.95493012281,-2512.7011310299,-2512.24450032782,-2511.64074151657,-2511.07890478152,-2510.61398780204,-2510.00962546937,-2509.26161445221,-2508.41415329811,-2507.54527100644,-2506.73279097049,-2506.22324899304,-2506.02459337366,-2506.14122650119,-2506.46188863395,-2506.8268009943,-2507.20635621994,-2507.45516776437,-2507.49285041534,-2507.27018353832,-2506.91538229704,-2506.50870996163,-2506.13714402076,-2505.99737545691,-2506.15956431484,-2506.46419626614,-2506.80311637091,-2507.15743592703,-2507.34926891403,-2507.35747684052,-2507.29066552081,-2507.18294910639,-2507.03588694213,-2507.01819332275,-2507.46522074323,-2508.86334791046,-2510.47878305418,-2512.31140484211,-2514.20546136593,-2515.82543937176,-2516.96648688256,-2518.29060758253,-2519.47835766236,-2520.53824605885,-2521.55882703268,-2522.32705519645,-2523.08539372413,-2524.1526719024,-2525.29749821271,-2526.3342673328,-2527.19728432125,-2527.84251152306,-2528.64231282338,-2529.81820255163,-2531.46581657894,-2533.12844417447,-2534.70208113761,-2535.81495569639,-2536.5398920154,-2536.91096422652,-2537.38436616238,-2537.94222188784,-2538.5600127774,-2539.16598072776
-2530.83723985808,-2530.91034390915,-2531.14002816216,-2531.38257493722,-2531.47140535415,-2531.12844203481,-2530.74898669229,-2530.36512171516,-2529.96913248273,-2529.71203979565,-2529.77986327524,-2529.71302957469,-2529.55702136479,-2529.51813826847,-2529.54414773829,-2529.6475202633,-2529.86649172394,-2530.13775410849,-2530.35112657293,-2530.57295049383,-2530.82398814464,-2531.09311088649,-2531.38036714888,-2531.59620294086,-2531.71190276298,-2531.90682643949,-2532.19997446527,-2532.61956580447,-2533.17776616727,-2533.84122603797,-2534.41789632823,-2534.86694388016,-2535.15714115789,-2535.30406465094,-2535.33748277642,-2535.31028048952,-2535.2189544497,-2534.82463526126,-2534.14944046973,-2533.47422909044,-2532.81746533441,-2532.14433241418,-2531.68346572134,-2531.43466481628,-2531.14190381845,-2530.79565749328,-2530.47685071138,-2530.306684911,-2530.28499673287,-2530.36201555192,-2530.48329847457,-2530.70036892997,-2530.92652957727,-2531.3342992419,-2531.83595958745,-2532.45393851758,-2533.10272498986,-2533.54884541892,-2533.62054829913,-2533.45459699022,-2533.1759544198,-2532.77105603706,-2532.45541378205,-2532.25417217338,-2532.14922036409,-2531.96502098996,-2531.58530699541,-2531.13987680434,-2530.61150146879,-2530.04431357408,-2529.70645200403,-2529.41136801634,-2529.15656120415,-2528.93484591734,-2528.59134268218,-2528.02924931796,-2527.65078009298,-2527.24906495447,-2526.82977885833,-2526.5425255894,-2526.24523324416,-2525.96395456089,-2525.64614143984,-2525.28254183475,-2524.85555530303,-2524.36419414192,-2523.76806881866,-2523.20565562463,-2522.58567968171,-2521.9242777506,-2521.31553745908,-2520.700807957,-2520.07043984683,-2519.50295663108,-2518.89307938139,-2518.19201451735,-2517.41094584808,-2516.60990381826,-2515.8037309376,-2515.24791052897,-2514.99635013823,-2514.98118705711,-2514.98376020202,-2514.95093810684,-2514.69713901393,-2514.24050831185,-2513.6367495006,-2513.07491276555,-2512.60999578608,-2512.0056334534,-2511.25762243625,-2510.41016128215,-2509.54127899047,-2508.72879895453,-2508.21925697707,-2508.0206013577,-2508.13723448522,-2508.45789661798,-2508.82280897833,-2509.20236420397,-2509.4511757484,-2509.48885839937,-2509.26619152235,-2508.91139028107,-2508.50471794566,-2508.1331520048,-2507.99338344094,-2508.15557229887,-2508.46020425017,-2508.79912435494,-2509.15344391106,-2509.34527689806,-2509.35348482455,-2509.28667350484,-2509.17895709042,-2509.03189492616,-2509.01420130678,-2509.46122872727,-2510.85935589449,-2512.47479103821,-2514.30741282614,-2516.20146934996,-2517.82144735579,-2518.96249486659,-2520.28661556656,-2521.47436564639,-2522.53425404288,-2523.55483501671,-2524.32306318049,-2525.08140170817,-2526.14867988643,-2527.29350619674,-2528.33027531683,-2529.19329230528,-2529.83851950709,-2530.63832080741,-2531.81421053567,-2533.46182456297,-2535.1244521585,-2536.69808912164,-2537.81096368042,-2538.53589999944,-2538.90697221055,-2539.38037414641,-2539.93822987188,-2540.55602076143,-2541.16198871179
-2532.83324784211,-2532.90635189319,-2533.13603614619,-2533.37858292125,-2533.46741333818,-2533.12445001884,-2532.74499467633,-2532.3611296992,-2531.96514046676,-2531.70804777968,-2531.77587125927,-2531.70903755873,-2531.55302934883,-2531.51414625251,-2531.54015572232,-2531.64352824733,-2531.86249970797,-2532.13376209252,-2532.34713455697,-2532.56895847786,-2532.81999612867,-2533.08911887052,-2533.37637513291,-2533.59221092489,-2533.70791074702,-2533.90283442352,-2534.1959824493,-2534.6155737885,-2535.1737741513,-2535.837234022,-2536.41390431226,-2536.86295186419,-2537.15314914192,-2537.30007263497,-2537.33349076045,-2537.30628847355,-2537.21496243373,-2536.82064324529,-2536.14544845376,-2535.47023707447,-2534.81347331844,-2534.14034039821,-2533.67947370537,-2533.43067280031,-2533.13791180249,-2532.79166547731,-2532.47285869542,-2532.30269289503,-2532.2810047169,-2532.35802353595,-2532.4793064586,-2532.69637691401,-2532.9225375613,-2533.33030722593,-2533.83196757149,-2534.44994650162,-2535.0987329739,-2535.54485340295,-2535.61655628316,-2535.45060497425,-2535.17196240383,-2534.76706402109,-2534.45142176608,-2534.25018015741,-2534.14522834812,-2533.96102897399,-2533.58131497945,-2533.13588478837,-2532.60750945283,-2532.04032155811,-2531.70245998806,-2531.40737600037,-2531.15256918818,-2530.93085390137,-2530.58735066621,-2530.025257302,-2529.64678807701,-2529.24507293851,-2528.82578684236,-2528.53853357344,-2528.24124122819,-2527.95996254492,-2527.64214942387,-2527.27854981878,-2526.85156328706,-2526.36020212595,-2525.76407680269,-2525.20166360867,-2524.58168766574,-2523.92028573463,-2523.31154544311,-2522.69681594104,-2522.06644783086,-2521.49896461511,-2520.88908736542,-2520.18802250138,-2519.40695383211,-2518.60591180229,-2517.79973892164,-2517.24391851301,-2516.99235812226,-2516.97719504114,-2516.97976818605,-2516.94694609087,-2516.69314699796,-2516.23651629588,-2515.63275748464,-2515.07092074958,-2514.60600377011,-2514.00164143744,-2513.25363042028,-2512.40616926618,-2511.5372869745,-2510.72480693856,-2510.2152649611,-2510.01660934173,-2510.13324246925,-2510.45390460201,-2510.81881696237,-2511.198372188,-2511.44718373243,-2511.48486638341,-2511.26219950639,-2510.9073982651,-2510.50072592969,-2510.12915998883,-2509.98939142498,-2510.1515802829,-2510.4562122342,-2510.79513233897,-2511.14945189509,-2511.34128488209,-2511.34949280858,-2511.28268148887,-2511.17496507445,-2511.02790291019,-2511.01020929082,-2511.4572367113,-2512.85536387853,-2514.47079902224,-2516.30342081018,-2518.19747733399,-2519.81745533982,-2520.95850285062,-2522.2826235506,-2523.47037363043,-2524.53026202692,-2525.55084300075,-2526.31907116452,-2527.0774096922,-2528.14468787046,-2529.28951418077,-2530.32628330087,-2531.18930028931,-2531.83452749112,-2532.63432879144,-2533.8102185197,-2535.457832547,-2537.12046014253,-2538.69409710567,-2539.80697166445,-2540.53190798347,-2540.90298019459,-2541.37638213044,-2541.93423785591,-2542.55202874546,-2543.15799669582
-2534.82925582614,-2534.90235987722,-2535.13204413022,-2535.37459090529,-2535.46342132221,-2535.12045800288,-2534.74100266036,-2534.35713768323,-2533.96114845079,-2533.70405576371,-2533.7718792433,-2533.70504554276,-2533.54903733286,-2533.51015423654,-2533.53616370635,-2533.63953623137,-2533.858507692,-2534.12977007655,-2534.343142541,-2534.56496646189,-2534.8160041127,-2535.08512685456,-2535.37238311695,-2535.58821890893,-2535.70391873105,-2535.89884240755,-2536.19199043333,-2536.61158177254,-2537.16978213533,-2537.83324200604,-2538.40991229629,-2538.85895984822,-2539.14915712596,-2539.296080619,-2539.32949874449,-2539.30229645758,-2539.21097041777,-2538.81665122933,-2538.1414564378,-2537.4662450585,-2536.80948130247,-2536.13634838224,-2535.6754816894,-2535.42668078434,-2535.13391978652,-2534.78767346134,-2534.46886667945,-2534.29870087906,-2534.27701270094,-2534.35403151998,-2534.47531444264,-2534.69238489804,-2534.91854554533,-2535.32631520996,-2535.82797555552,-2536.44595448565,-2537.09474095793,-2537.54086138699,-2537.61256426719,-2537.44661295828,-2537.16797038787,-2536.76307200512,-2536.44742975011,-2536.24618814145,-2536.14123633215,-2535.95703695803,-2535.57732296348,-2535.1318927724,-2534.60351743686,-2534.03632954214,-2533.69846797209,-2533.4033839844,-2533.14857717221,-2532.9268618854,-2532.58335865024,-2532.02126528603,-2531.64279606105,-2531.24108092254,-2530.82179482639,-2530.53454155747,-2530.23724921223,-2529.95597052895,-2529.6381574079,-2529.27455780282,-2528.8475712711,-2528.35621010998,-2527.76008478672,-2527.1976715927,-2526.57769564978,-2525.91629371866,-2525.30755342714,-2524.69282392507,-2524.0624558149,-2523.49497259915,-2522.88509534946,-2522.18403048542,-2521.40296181614,-2520.60191978632,-2519.79574690567,-2519.23992649704,-2518.98836610629,-2518.97320302518,-2518.97577617008,-2518.9429540749,-2518.68915498199,-2518.23252427992,-2517.62876546867,-2517.06692873362,-2516.60201175414,-2515.99764942147,-2515.24963840431,-2514.40217725021,-2513.53329495853,-2512.72081492259,-2512.21127294513,-2512.01261732576,-2512.12925045328,-2512.44991258604,-2512.8148249464,-2513.19438017204,-2513.44319171647,-2513.48087436744,-2513.25820749042,-2512.90340624913,-2512.49673391372,-2512.12516797286,-2511.98539940901,-2512.14758826693,-2512.45222021824,-2512.79114032301,-2513.14545987913,-2513.33729286613,-2513.34550079261,-2513.27868947291,-2513.17097305849,-2513.02391089423,-2513.00621727485,-2513.45324469533,-2514.85137186256,-2516.46680700628,-2518.29942879421,-2520.19348531802,-2521.81346332385,-2522.95451083465,-2524.27863153463,-2525.46638161446,-2526.52627001095,-2527.54685098478,-2528.31507914855,-2529.07341767623,-2530.14069585449,-2531.28552216481,-2532.3222912849,-2533.18530827334,-2533.83053547515,-2534.63033677548,-2535.80622650373,-2537.45384053104,-2539.11646812656,-2540.6901050897,-2541.80297964848,-2542.5279159675,-2542.89898817862,-2543.37239011447,-2543.93024583994,-2544.54803672949,-2545.15400467985
-2536.82526381018,-2536.89836786125,-2537.12805211425,-2537.37059888932,-2537.45942930625,-2537.11646598691,-2536.73701064439,-2536.35314566726,-2535.95715643482,-2535.70006374775,-2535.76788722733,-2535.70105352679,-2535.54504531689,-2535.50616222057,-2535.53217169038,-2535.6355442154,-2535.85451567603,-2536.12577806058,-2536.33915052503,-2536.56097444593,-2536.81201209673,-2537.08113483859,-2537.36839110098,-2537.58422689296,-2537.69992671508,-2537.89485039158,-2538.18799841736,-2538.60758975657,-2539.16579011937,-2539.82924999007,-2540.40592028033,-2540.85496783225,-2541.14516510999,-2541.29208860303,-2541.32550672852,-2541.29830444161,-2541.2069784018,-2540.81265921336,-2540.13746442183,-2539.46225304253,-2538.8054892865,-2538.13235636627,-2537.67148967343,-2537.42268876838,-2537.12992777055,-2536.78368144537,-2536.46487466348,-2536.29470886309,-2536.27302068497,-2536.35003950401,-2536.47132242667,-2536.68839288207,-2536.91455352937,-2537.322323194,-2537.82398353955,-2538.44196246968,-2539.09074894196,-2539.53686937102,-2539.60857225122,-2539.44262094231,-2539.1639783719,-2538.75907998915,-2538.44343773414,-2538.24219612548,-2538.13724431618,-2537.95304494206,-2537.57333094751,-2537.12790075643,-2536.59952542089,-2536.03233752617,-2535.69447595613,-2535.39939196843,-2535.14458515624,-2534.92286986943,-2534.57936663428,-2534.01727327006,-2533.63880404508,-2533.23708890657,-2532.81780281042,-2532.5305495415,-2532.23325719626,-2531.95197851298,-2531.63416539194,-2531.27056578685,-2530.84357925513,-2530.35221809401,-2529.75609277075,-2529.19367957673,-2528.57370363381,-2527.9123017027,-2527.30356141117,-2526.6888319091,-2526.05846379893,-2525.49098058318,-2524.88110333349,-2524.18003846945,-2523.39896980017,-2522.59792777035,-2521.7917548897,-2521.23593448107,-2520.98437409033,-2520.96921100921,-2520.97178415411,-2520.93896205893,-2520.68516296603,-2520.22853226395,-2519.6247734527,-2519.06293671765,-2518.59801973817,-2517.9936574055,-2517.24564638834,-2516.39818523424,-2515.52930294256,-2514.71682290662,-2514.20728092916,-2514.00862530979,-2514.12525843732,-2514.44592057007,-2514.81083293043,-2515.19038815607,-2515.4391997005,-2515.47688235147,-2515.25421547445,-2514.89941423316,-2514.49274189775,-2514.12117595689,-2513.98140739304,-2514.14359625096,-2514.44822820227,-2514.78714830704,-2515.14146786316,-2515.33330085016,-2515.34150877665,-2515.27469745694,-2515.16698104252,-2515.01991887826,-2515.00222525888,-2515.44925267936,-2516.84737984659,-2518.46281499031,-2520.29543677824,-2522.18949330205,-2523.80947130788,-2524.95051881868,-2526.27463951866,-2527.46238959849,-2528.52227799498,-2529.54285896881,-2530.31108713258,-2531.06942566026,-2532.13670383852,-2533.28153014884,-2534.31829926893,-2535.18131625738,-2535.82654345919,-2536.62634475951,-2537.80223448776,-2539.44984851507,-2541.11247611059,-2542.68611307373,-2543.79898763251,-2544.52392395153,-2544.89499616265,-2545.36839809851,-2545.92625382397,-2546.54404471353,-2547.15001266389
-2538.82127179421,-2538.89437584528,-2539.12406009829,-2539.36660687335,-2539.45543729028,-2539.11247397094,-2538.73301862842,-2538.34915365129,-2537.95316441886,-2537.69607173178,-2537.76389521137,-2537.69706151082,-2537.54105330092,-2537.5021702046,-2537.52817967442,-2537.63155219943,-2537.85052366007,-2538.12178604462,-2538.33515850906,-2538.55698242996,-2538.80802008077,-2539.07714282262,-2539.36439908501,-2539.58023487699,-2539.69593469911,-2539.89085837562,-2540.1840064014,-2540.6035977406,-2541.1617981034,-2541.8252579741,-2542.40192826436,-2542.85097581629,-2543.14117309402,-2543.28809658707,-2543.32151471255,-2543.29431242564,-2543.20298638583,-2542.80866719739,-2542.13347240586,-2541.45826102657,-2540.80149727054,-2540.1283643503,-2539.66749765746,-2539.41869675241,-2539.12593575458,-2538.77968942941,-2538.46088264751,-2538.29071684712,-2538.269028669,-2538.34604748805,-2538.4673304107,-2538.6844008661,-2538.9105615134,-2539.31833117803,-2539.81999152358,-2540.43797045371,-2541.08675692599,-2541.53287735505,-2541.60458023525,-2541.43862892635,-2541.15998635593,-2540.75508797319,-2540.43944571817,-2540.23820410951,-2540.13325230021,-2539.94905292609,-2539.56933893154,-2539.12390874046,-2538.59553340492,-2538.02834551021,-2537.69048394016,-2537.39539995247,-2537.14059314027,-2536.91887785346,-2536.57537461831,-2536.01328125409,-2535.63481202911,-2535.2330968906,-2534.81381079446,-2534.52655752553,-2534.22926518029,-2533.94798649701,-2533.63017337597,-2533.26657377088,-2532.83958723916,-2532.34822607804,-2531.75210075479,-2531.18968756076,-2530.56971161784,-2529.90830968673,-2529.29956939521,-2528.68483989313,-2528.05447178296,-2527.48698856721,-2526.87711131752,-2526.17604645348,-2525.39497778421,-2524.59393575438,-2523.78776287373,-2523.2319424651,-2522.98038207436,-2522.96521899324,-2522.96779213814,-2522.93497004297,-2522.68117095006,-2522.22454024798,-2521.62078143673,-2521.05894470168,-2520.5940277222,-2519.98966538953,-2519.24165437237,-2518.39419321827,-2517.5253109266,-2516.71283089065,-2516.2032889132,-2516.00463329382,-2516.12126642135,-2516.44192855411,-2516.80684091446,-2517.1863961401,-2517.43520768453,-2517.4728903355,-2517.25022345848,-2516.8954222172,-2516.48874988179,-2516.11718394092,-2515.97741537707,-2516.139604235,-2516.4442361863,-2516.78315629107,-2517.13747584719,-2517.32930883419,-2517.33751676068,-2517.27070544097,-2517.16298902655,-2517.01592686229,-2516.99823324291,-2517.44526066339,-2518.84338783062,-2520.45882297434,-2522.29144476227,-2524.18550128609,-2525.80547929192,-2526.94652680272,-2528.27064750269,-2529.45839758252,-2530.51828597901,-2531.53886695284,-2532.30709511661,-2533.06543364429,-2534.13271182255,-2535.27753813287,-2536.31430725296,-2537.17732424141,-2537.82255144322,-2538.62235274354,-2539.79824247179,-2541.4458564991,-2543.10848409463,-2544.68212105777,-2545.79499561655,-2546.51993193556,-2546.89100414668,-2547.36440608254,-2547.922261808,-2548.54005269756,-2549.14602064792
-2540.81727977824,-2540.89038382931,-2541.12006808232,-2541.36261485738,-2541.45144527431,-2541.10848195497,-2540.72902661245,-2540.34516163532,-2539.94917240289,-2539.69207971581,-2539.7599031954,-2539.69306949485,-2539.53706128495,-2539.49817818863,-2539.52418765845,-2539.62756018346,-2539.8465316441,-2540.11779402865,-2540.33116649309,-2540.55299041399,-2540.8040280648,-2541.07315080665,-2541.36040706904,-2541.57624286102,-2541.69194268314,-2541.88686635965,-2542.18001438543,-2542.59960572463,-2543.15780608743,-2543.82126595813,-2544.39793624839,-2544.84698380032,-2545.13718107805,-2545.2841045711,-2545.31752269658,-2545.29032040968,-2545.19899436986,-2544.80467518142,-2544.12948038989,-2543.4542690106,-2542.79750525457,-2542.12437233434,-2541.6635056415,-2541.41470473644,-2541.12194373861,-2540.77569741344,-2540.45689063154,-2540.28672483115,-2540.26503665303,-2540.34205547208,-2540.46333839473,-2540.68040885013,-2540.90656949743,-2541.31433916206,-2541.81599950761,-2542.43397843774,-2543.08276491002,-2543.52888533908,-2543.60058821929,-2543.43463691038,-2543.15599433996,-2542.75109595722,-2542.43545370221,-2542.23421209354,-2542.12926028425,-2541.94506091012,-2541.56534691557,-2541.1199167245,-2540.59154138895,-2540.02435349424,-2539.68649192419,-2539.3914079365,-2539.13660112431,-2538.9148858375,-2538.57138260234,-2538.00928923812,-2537.63082001314,-2537.22910487463,-2536.80981877849,-2536.52256550956,-2536.22527316432,-2535.94399448105,-2535.62618136,-2535.26258175491,-2534.83559522319,-2534.34423406208,-2533.74810873882,-2533.18569554479,-2532.56571960187,-2531.90431767076,-2531.29557737924,-2530.68084787716,-2530.05047976699,-2529.48299655124,-2528.87311930155,-2528.17205443751,-2527.39098576824,-2526.58994373842,-2525.78377085776,-2525.22795044913,-2524.97639005839,-2524.96122697727,-2524.96380012218,-2524.930978027,-2524.67717893409,-2524.22054823201,-2523.61678942076,-2523.05495268571,-2522.59003570624,-2521.98567337356,-2521.23766235641,-2520.39020120231,-2519.52131891063,-2518.70883887469,-2518.19929689723,-2518.00064127786,-2518.11727440538,-2518.43793653814,-2518.80284889849,-2519.18240412413,-2519.43121566856,-2519.46889831953,-2519.24623144251,-2518.89143020123,-2518.48475786582,-2518.11319192496,-2517.9734233611,-2518.13561221903,-2518.44024417033,-2518.7791642751,-2519.13348383122,-2519.32531681822,-2519.33352474471,-2519.266713425,-2519.15899701058,-2519.01193484632,-2518.99424122694,-2519.44126864743,-2520.83939581465,-2522.45483095837,-2524.2874527463,-2526.18150927012,-2527.80148727595,-2528.94253478675,-2530.26665548672,-2531.45440556655,-2532.51429396304,-2533.53487493687,-2534.30310310065,-2535.06144162833,-2536.12871980659,-2537.2735461169,-2538.31031523699,-2539.17333222544,-2539.81855942725,-2540.61836072757,-2541.79425045583,-2543.44186448313,-2545.10449207866,-2546.6781290418,-2547.79100360058,-2548.51593991959,-2548.88701213071,-2549.36041406657,-2549.91826979204,-2550.53606068159,-2551.14202863195
-2542.81328776227,-2542.88639181335,-2543.11607606635,-2543.35862284141,-2543.44745325834,-2543.104489939,-2542.72503459649,-2542.34116961936,-2541.94518038692,-2541.68808769984,-2541.75591117943,-2541.68907747889,-2541.53306926898,-2541.49418617266,-2541.52019564248,-2541.62356816749,-2541.84253962813,-2542.11380201268,-2542.32717447712,-2542.54899839802,-2542.80003604883,-2543.06915879068,-2543.35641505307,-2543.57225084505,-2543.68795066718,-2543.88287434368,-2544.17602236946,-2544.59561370866,-2545.15381407146,-2545.81727394216,-2546.39394423242,-2546.84299178435,-2547.13318906208,-2547.28011255513,-2547.31353068061,-2547.28632839371,-2547.19500235389,-2546.80068316545,-2546.12548837392,-2545.45027699463,-2544.7935132386,-2544.12038031837,-2543.65951362553,-2543.41071272047,-2543.11795172265,-2542.77170539747,-2542.45289861558,-2542.28273281519,-2542.26104463706,-2542.33806345611,-2542.45934637876,-2542.67641683417,-2542.90257748146,-2543.31034714609,-2543.81200749165,-2544.42998642177,-2545.07877289405,-2545.52489332311,-2545.59659620332,-2545.43064489441,-2545.15200232399,-2544.74710394125,-2544.43146168624,-2544.23022007757,-2544.12526826828,-2543.94106889415,-2543.56135489961,-2543.11592470853,-2542.58754937299,-2542.02036147827,-2541.68249990822,-2541.38741592053,-2541.13260910834,-2540.91089382153,-2540.56739058637,-2540.00529722216,-2539.62682799717,-2539.22511285867,-2538.80582676252,-2538.5185734936,-2538.22128114835,-2537.94000246508,-2537.62218934403,-2537.25858973894,-2536.83160320722,-2536.34024204611,-2535.74411672285,-2535.18170352882,-2534.5617275859,-2533.90032565479,-2533.29158536327,-2532.6768558612,-2532.04648775102,-2531.47900453527,-2530.86912728558,-2530.16806242154,-2529.38699375227,-2528.58595172245,-2527.77977884179,-2527.22395843317,-2526.97239804242,-2526.9572349613,-2526.95980810621,-2526.92698601103,-2526.67318691812,-2526.21655621604,-2525.6127974048,-2525.05096066974,-2524.58604369027,-2523.9816813576,-2523.23367034044,-2522.38620918634,-2521.51732689466,-2520.70484685872,-2520.19530488126,-2519.99664926189,-2520.11328238941,-2520.43394452217,-2520.79885688253,-2521.17841210816,-2521.42722365259,-2521.46490630356,-2521.24223942655,-2520.88743818526,-2520.48076584985,-2520.10919990899,-2519.96943134513,-2520.13162020306,-2520.43625215436,-2520.77517225913,-2521.12949181525,-2521.32132480225,-2521.32953272874,-2521.26272140903,-2521.15500499461,-2521.00794283035,-2520.99024921098,-2521.43727663146,-2522.83540379869,-2524.4508389424,-2526.28346073033,-2528.17751725415,-2529.79749525998,-2530.93854277078,-2532.26266347076,-2533.45041355058,-2534.51030194708,-2535.53088292091,-2536.29911108468,-2537.05744961236,-2538.12472779062,-2539.26955410093,-2540.30632322103,-2541.16934020947,-2541.81456741128,-2542.6143687116,-2543.79025843986,-2545.43787246716,-2547.10050006269,-2548.67413702583,-2549.78701158461,-2550.51194790363,-2550.88302011475,-2551.3564220506,-2551.91427777607,-2552.53206866562,-2553.13803661598
-2544.8092957463,-2544.88239979738,-2545.11208405038,-2545.35463082544,-2545.44346124237,-2545.10049792304,-2544.72104258052,-2544.33717760339,-2543.94118837095,-2543.68409568387,-2543.75191916346,-2543.68508546292,-2543.52907725302,-2543.4901941567,-2543.51620362651,-2543.61957615152,-2543.83854761216,-2544.10980999671,-2544.32318246116,-2544.54500638205,-2544.79604403286,-2545.06516677472,-2545.35242303711,-2545.56825882909,-2545.68395865121,-2545.87888232771,-2546.17203035349,-2546.5916216927,-2547.14982205549,-2547.8132819262,-2548.38995221645,-2548.83899976838,-2549.12919704612,-2549.27612053916,-2549.30953866465,-2549.28233637774,-2549.19101033793,-2548.79669114949,-2548.12149635796,-2547.44628497866,-2546.78952122263,-2546.1163883024,-2545.65552160956,-2545.4067207045,-2545.11395970668,-2544.7677133815,-2544.44890659961,-2544.27874079922,-2544.25705262109,-2544.33407144014,-2544.4553543628,-2544.6724248182,-2544.89858546549,-2545.30635513012,-2545.80801547568,-2546.42599440581,-2547.07478087809,-2547.52090130715,-2547.59260418735,-2547.42665287844,-2547.14801030802,-2546.74311192528,-2546.42746967027,-2546.22622806161,-2546.12127625231,-2545.93707687819,-2545.55736288364,-2545.11193269256,-2544.58355735702,-2544.0163694623,-2543.67850789225,-2543.38342390456,-2543.12861709237,-2542.90690180556,-2542.5633985704,-2542.00130520619,-2541.62283598121,-2541.2211208427,-2540.80183474655,-2540.51458147763,-2540.21728913239,-2539.93601044911,-2539.61819732806,-2539.25459772298,-2538.82761119126,-2538.33625003014,-2537.74012470688,-2537.17771151286,-2536.55773556994,-2535.89633363882,-2535.2875933473,-2534.67286384523,-2534.04249573506,-2533.47501251931,-2532.86513526962,-2532.16407040558,-2531.3830017363,-2530.58195970648,-2529.77578682583,-2529.2199664172,-2528.96840602645,-2528.95324294534,-2528.95581609024,-2528.92299399506,-2528.66919490215,-2528.21256420008,-2527.60880538883,-2527.04696865378,-2526.5820516743,-2525.97768934163,-2525.22967832447,-2524.38221717037,-2523.51333487869,-2522.70085484275,-2522.19131286529,-2521.99265724592,-2522.10929037344,-2522.4299525062,-2522.79486486656,-2523.1744200922,-2523.42323163662,-2523.4609142876,-2523.23824741058,-2522.88344616929,-2522.47677383388,-2522.10520789302,-2521.96543932917,-2522.12762818709,-2522.43226013839,-2522.77118024317,-2523.12549979929,-2523.31733278628,-2523.32554071277,-2523.25872939307,-2523.15101297864,-2523.00395081439,-2522.98625719501,-2523.43328461549,-2524.83141178272,-2526.44684692643,-2528.27946871437,-2530.17352523818,-2531.79350324401,-2532.93455075481,-2534.25867145479,-2535.44642153462,-2536.50630993111,-2537.52689090494,-2538.29511906871,-2539.05345759639,-2540.12073577465,-2541.26556208497,-2542.30233120506,-2543.1653481935,-2543.81057539531,-2544.61037669564,-2545.78626642389,-2547.4338804512,-2549.09650804672,-2550.67014500986,-2551.78301956864,-2552.50795588766,-2552.87902809878,-2553.35243003463,-2553.9102857601,-2554.52807664965,-2555.13404460001
-2546.80530373034,-2546.87840778141,-2547.10809203441,-2547.35063880948,-2547.43946922641,-2547.09650590707,-2546.71705056455,-2546.33318558742,-2545.93719635498,-2545.68010366791,-2545.74792714749,-2545.68109344695,-2545.52508523705,-2545.48620214073,-2545.51221161054,-2545.61558413556,-2545.83455559619,-2546.10581798074,-2546.31919044519,-2546.54101436609,-2546.79205201689,-2547.06117475875,-2547.34843102114,-2547.56426681312,-2547.67996663524,-2547.87489031174,-2548.16803833752,-2548.58762967673,-2549.14583003953,-2549.80928991023,-2550.38596020049,-2550.83500775241,-2551.12520503015,-2551.27212852319,-2551.30554664868,-2551.27834436177,-2551.18701832196,-2550.79269913352,-2550.11750434199,-2549.44229296269,-2548.78552920666,-2548.11239628643,-2547.65152959359,-2547.40272868854,-2547.10996769071,-2546.76372136553,-2546.44491458364,-2546.27474878325,-2546.25306060513,-2546.33007942417,-2546.45136234683,-2546.66843280223,-2546.89459344953,-2547.30236311416,-2547.80402345971,-2548.42200238984,-2549.07078886212,-2549.51690929118,-2549.58861217138,-2549.42266086247,-2549.14401829206,-2548.73911990931,-2548.4234776543,-2548.22223604564,-2548.11728423634,-2547.93308486222,-2547.55337086767,-2547.10794067659,-2546.57956534105,-2546.01237744633,-2545.67451587629,-2545.37943188859,-2545.1246250764,-2544.90290978959,-2544.55940655444,-2543.99731319022,-2543.61884396524,-2543.21712882673,-2542.79784273058,-2542.51058946166,-2542.21329711642,-2541.93201843314,-2541.6142053121,-2541.25060570701,-2540.82361917529,-2540.33225801417,-2539.73613269091,-2539.17371949689,-2538.55374355397,-2537.89234162285,-2537.28360133133,-2536.66887182926,-2536.03850371909,-2535.47102050334,-2534.86114325365,-2534.16007838961,-2533.37900972033,-2532.57796769051,-2531.77179480986,-2531.21597440123,-2530.96441401049,-2530.94925092937,-2530.95182407427,-2530.91900197909,-2530.66520288619,-2530.20857218411,-2529.60481337286,-2529.04297663781,-2528.57805965833,-2527.97369732566,-2527.2256863085,-2526.3782251544,-2525.50934286272,-2524.69686282678,-2524.18732084932,-2523.98866522995,-2524.10529835748,-2524.42596049023,-2524.79087285059,-2525.17042807623,-2525.41923962066,-2525.45692227163,-2525.23425539461,-2524.87945415332,-2524.47278181791,-2524.10121587705,-2523.9614473132,-2524.12363617112,-2524.42826812243,-2524.7671882272,-2525.12150778332,-2525.31334077032,-2525.32154869681,-2525.2547373771,-2525.14702096268,-2524.99995879842,-2524.98226517904,-2525.42929259952,-2526.82741976675,-2528.44285491047,-2530.2754766984,-2532.16953322221,-2533.78951122804,-2534.93055873884,-2536.25467943882,-2537.44242951865,-2538.50231791514,-2539.52289888897,-2540.29112705274,-2541.04946558042,-2542.11674375868,-2543.261570069,-2544.29833918909,-2545.16135617754,-2545.80658337935,-2546.60638467967,-2547.78227440792,-2549.42988843523,-2551.09251603075,-2552.66615299389,-2553.77902755267,-2554.50396387169,-2554.87503608281,-2555.34843801867,-2555.90629374413,-2556.52408463369,-2557.13005258405
-2548.80131171437,-2548.87441576544,-2549.10410001845,-2549.34664679351,-2549.43547721044,-2549.0925138911,-2548.71305854858,-2548.32919357145,-2547.93320433901,-2547.67611165194,-2547.74393513153,-2547.67710143098,-2547.52109322108,-2547.48221012476,-2547.50821959458,-2547.61159211959,-2547.83056358023,-2548.10182596478,-2548.31519842922,-2548.53702235012,-2548.78806000092,-2549.05718274278,-2549.34443900517,-2549.56027479715,-2549.67597461927,-2549.87089829578,-2550.16404632156,-2550.58363766076,-2551.14183802356,-2551.80529789426,-2552.38196818452,-2552.83101573644,-2553.12121301418,-2553.26813650723,-2553.30155463271,-2553.2743523458,-2553.18302630599,-2552.78870711755,-2552.11351232602,-2551.43830094673,-2550.7815371907,-2550.10840427046,-2549.64753757762,-2549.39873667257,-2549.10597567474,-2548.75972934956,-2548.44092256767,-2548.27075676728,-2548.24906858916,-2548.32608740821,-2548.44737033086,-2548.66444078626,-2548.89060143356,-2549.29837109819,-2549.80003144374,-2550.41801037387,-2551.06679684615,-2551.51291727521,-2551.58462015541,-2551.41866884651,-2551.14002627609,-2550.73512789334,-2550.41948563833,-2550.21824402967,-2550.11329222037,-2549.92909284625,-2549.5493788517,-2549.10394866062,-2548.57557332508,-2548.00838543036,-2547.67052386032,-2547.37543987263,-2547.12063306043,-2546.89891777362,-2546.55541453847,-2545.99332117425,-2545.61485194927,-2545.21313681076,-2544.79385071462,-2544.50659744569,-2544.20930510045,-2543.92802641717,-2543.61021329613,-2543.24661369104,-2542.81962715932,-2542.3282659982,-2541.73214067495,-2541.16972748092,-2540.549751538,-2539.88834960689,-2539.27960931537,-2538.66487981329,-2538.03451170312,-2537.46702848737,-2536.85715123768,-2536.15608637364,-2535.37501770437,-2534.57397567454,-2533.76780279389,-2533.21198238526,-2532.96042199452,-2532.9452589134,-2532.9478320583,-2532.91500996313,-2532.66121087022,-2532.20458016814,-2531.60082135689,-2531.03898462184,-2530.57406764236,-2529.96970530969,-2529.22169429253,-2528.37423313843,-2527.50535084676,-2526.69287081081,-2526.18332883336,-2525.98467321398,-2526.10130634151,-2526.42196847427,-2526.78688083462,-2527.16643606026,-2527.41524760469,-2527.45293025566,-2527.23026337864,-2526.87546213736,-2526.46878980195,-2526.09722386108,-2525.95745529723,-2526.11964415516,-2526.42427610646,-2526.76319621123,-2527.11751576735,-2527.30934875435,-2527.31755668084,-2527.25074536113,-2527.14302894671,-2526.99596678245,-2526.97827316307,-2527.42530058355,-2528.82342775078,-2530.4388628945,-2532.27148468243,-2534.16554120625,-2535.78551921208,-2536.92656672288,-2538.25068742285,-2539.43843750268,-2540.49832589917,-2541.518906873,-2542.28713503677,-2543.04547356445,-2544.11275174271,-2545.25757805303,-2546.29434717312,-2547.15736416157,-2547.80259136338,-2548.6023926637,-2549.77828239195,-2551.42589641926,-2553.08852401479,-2554.66216097792,-2555.77503553671,-2556.49997185572,-2556.87104406684,-2557.3444460027,-2557.90230172816,-2558.52009261772,-2559.12606056808
-2550.7973196984,-2550.87042374947,-2551.10010800248,-2551.34265477754,-2551.43148519447,-2551.08852187513,-2550.70906653261,-2550.32520155548,-2549.92921232305,-2549.67211963597,-2549.73994311556,-2549.67310941501,-2549.51710120511,-2549.47821810879,-2549.50422757861,-2549.60760010362,-2549.82657156426,-2550.09783394881,-2550.31120641325,-2550.53303033415,-2550.78406798496,-2551.05319072681,-2551.3404469892,-2551.55628278118,-2551.6719826033,-2551.86690627981,-2552.16005430559,-2552.57964564479,-2553.13784600759,-2553.80130587829,-2554.37797616855,-2554.82702372048,-2555.11722099821,-2555.26414449126,-2555.29756261674,-2555.27036032984,-2555.17903429002,-2554.78471510158,-2554.10952031005,-2553.43430893076,-2552.77754517473,-2552.1044122545,-2551.64354556165,-2551.3947446566,-2551.10198365877,-2550.7557373336,-2550.4369305517,-2550.26676475131,-2550.24507657319,-2550.32209539224,-2550.44337831489,-2550.66044877029,-2550.88660941759,-2551.29437908222,-2551.79603942777,-2552.4140183579,-2553.06280483018,-2553.50892525924,-2553.58062813945,-2553.41467683054,-2553.13603426012,-2552.73113587738,-2552.41549362237,-2552.2142520137,-2552.10930020441,-2551.92510083028,-2551.54538683573,-2551.09995664466,-2550.57158130911,-2550.0043934144,-2549.66653184435,-2549.37144785666,-2549.11664104447,-2548.89492575766,-2548.5514225225,-2547.98932915828,-2547.6108599333,-2547.20914479479,-2546.78985869865,-2546.50260542972,-2546.20531308448,-2545.9240344012,-2545.60622128016,-2545.24262167507,-2544.81563514335,-2544.32427398223,-2543.72814865898,-2543.16573546495,-2542.54575952203,-2541.88435759092,-2541.2756172994,-2540.66088779732,-2540.03051968715,-2539.4630364714,-2538.85315922171,-2538.15209435767,-2537.3710256884,-2536.56998365858,-2535.76381077792,-2535.20799036929,-2534.95642997855,-2534.94126689743,-2534.94384004234,-2534.91101794716,-2534.65721885425,-2534.20058815217,-2533.59682934092,-2533.03499260587,-2532.5700756264,-2531.96571329372,-2531.21770227656,-2530.37024112247,-2529.50135883079,-2528.68887879485,-2528.17933681739,-2527.98068119802,-2528.09731432554,-2528.4179764583,-2528.78288881865,-2529.16244404429,-2529.41125558872,-2529.44893823969,-2529.22627136267,-2528.87147012139,-2528.46479778598,-2528.09323184512,-2527.95346328126,-2528.11565213919,-2528.42028409049,-2528.75920419526,-2529.11352375138,-2529.30535673838,-2529.31356466487,-2529.24675334516,-2529.13903693074,-2528.99197476648,-2528.9742811471,-2529.42130856758,-2530.81943573481,-2532.43487087853,-2534.26749266646,-2536.16154919028,-2537.78152719611,-2538.92257470691,-2540.24669540688,-2541.43444548671,-2542.4943338832,-2543.51491485703,-2544.28314302081,-2545.04148154849,-2546.10875972675,-2547.25358603706,-2548.29035515715,-2549.1533721456,-2549.79859934741,-2550.59840064773,-2551.77429037599,-2553.42190440329,-2555.08453199882,-2556.65816896196,-2557.77104352074,-2558.49597983975,-2558.86705205087,-2559.34045398673,-2559.89830971219,-2560.51610060175,-2561.12206855211
-2552.79332768243,-2552.86643173351,-2553.09611598651,-2553.33866276157,-2553.4274931785,-2553.08452985916,-2552.70507451665,-2552.32120953952,-2551.92522030708,-2551.66812762,-2551.73595109959,-2551.66911739905,-2551.51310918914,-2551.47422609282,-2551.50023556264,-2551.60360808765,-2551.82257954829,-2552.09384193284,-2552.30721439728,-2552.52903831818,-2552.78007596899,-2553.04919871084,-2553.33645497323,-2553.55229076521,-2553.66799058734,-2553.86291426384,-2554.15606228962,-2554.57565362882,-2555.13385399162,-2555.79731386232,-2556.37398415258,-2556.82303170451,-2557.11322898224,-2557.26015247529,-2557.29357060077,-2557.26636831387,-2557.17504227405,-2556.78072308561,-2556.10552829408,-2555.43031691479,-2554.77355315876,-2554.10042023853,-2553.63955354569,-2553.39075264063,-2553.09799164281,-2552.75174531763,-2552.43293853574,-2552.26277273535,-2552.24108455722,-2552.31810337627,-2552.43938629892,-2552.65645675433,-2552.88261740162,-2553.29038706625,-2553.79204741181,-2554.41002634193,-2555.05881281421,-2555.50493324327,-2555.57663612348,-2555.41068481457,-2555.13204224415,-2554.72714386141,-2554.4115016064,-2554.21025999773,-2554.10530818844,-2553.92110881431,-2553.54139481977,-2553.09596462869,-2552.56758929314,-2552.00040139843,-2551.66253982838,-2551.36745584069,-2551.1126490285,-2550.89093374169,-2550.54743050653,-2549.98533714232,-2549.60686791733,-2549.20515277883,-2548.78586668268,-2548.49861341376,-2548.20132106851,-2547.92004238524,-2547.60222926419,-2547.2386296591,-2546.81164312738,-2546.32028196627,-2545.72415664301,-2545.16174344898,-2544.54176750606,-2543.88036557495,-2543.27162528343,-2542.65689578136,-2542.02652767118,-2541.45904445543,-2540.84916720574,-2540.1481023417,-2539.36703367243,-2538.56599164261,-2537.75981876195,-2537.20399835333,-2536.95243796258,-2536.93727488146,-2536.93984802637,-2536.90702593119,-2536.65322683828,-2536.1965961362,-2535.59283732496,-2535.0310005899,-2534.56608361043,-2533.96172127776,-2533.2137102606,-2532.3662491065,-2531.49736681482,-2530.68488677888,-2530.17534480142,-2529.97668918205,-2530.09332230957,-2530.41398444233,-2530.77889680269,-2531.15845202832,-2531.40726357275,-2531.44494622372,-2531.22227934671,-2530.86747810542,-2530.46080577001,-2530.08923982915,-2529.94947126529,-2530.11166012322,-2530.41629207452,-2530.75521217929,-2531.10953173541,-2531.30136472241,-2531.3095726489,-2531.24276132919,-2531.13504491477,-2530.98798275051,-2530.97028913114,-2531.41731655162,-2532.81544371885,-2534.43087886256,-2536.26350065049,-2538.15755717431,-2539.77753518014,-2540.91858269094,-2542.24270339092,-2543.43045347074,-2544.49034186723,-2545.51092284107,-2546.27915100484,-2547.03748953252,-2548.10476771078,-2549.24959402109,-2550.28636314119,-2551.14938012963,-2551.79460733144,-2552.59440863176,-2553.77029836002,-2555.41791238732,-2557.08053998285,-2558.65417694599,-2559.76705150477,-2560.49198782379,-2560.86306003491,-2561.33646197076,-2561.89431769623,-2562.51210858578,-2563.11807653614
-2554.78933566646,-2554.86243971754,-2555.09212397054,-2555.3346707456,-2555.42350116253,-2555.0805378432,-2554.70108250068,-2554.31721752355,-2553.92122829111,-2553.66413560403,-2553.73195908362,-2553.66512538308,-2553.50911717318,-2553.47023407686,-2553.49624354667,-2553.59961607168,-2553.81858753232,-2554.08984991687,-2554.30322238132,-2554.52504630221,-2554.77608395302,-2555.04520669488,-2555.33246295727,-2555.54829874925,-2555.66399857137,-2555.85892224787,-2556.15207027365,-2556.57166161286,-2557.12986197565,-2557.79332184636,-2558.36999213661,-2558.81903968854,-2559.10923696628,-2559.25616045932,-2559.28957858481,-2559.2623762979,-2559.17105025809,-2558.77673106964,-2558.10153627811,-2557.42632489882,-2556.76956114279,-2556.09642822256,-2555.63556152972,-2555.38676062466,-2555.09399962684,-2554.74775330166,-2554.42894651977,-2554.25878071938,-2554.23709254125,-2554.3141113603,-2554.43539428296,-2554.65246473836,-2554.87862538565,-2555.28639505028,-2555.78805539584,-2556.40603432597,-2557.05482079825,-2557.50094122731,-2557.57264410751,-2557.4066927986,-2557.12805022818,-2556.72315184544,-2556.40750959043,-2556.20626798177,-2556.10131617247,-2555.91711679835,-2555.5374028038,-2555.09197261272,-2554.56359727718,-2553.99640938246,-2553.65854781241,-2553.36346382472,-2553.10865701253,-2552.88694172572,-2552.54343849056,-2551.98134512635,-2551.60287590137,-2551.20116076286,-2550.78187466671,-2550.49462139779,-2550.19732905255,-2549.91605036927,-2549.59823724822,-2549.23463764314,-2548.80765111142,-2548.3162899503,-2547.72016462704,-2547.15775143302,-2546.5377754901,-2545.87637355898,-2545.26763326746,-2544.65290376539,-2544.02253565522,-2543.45505243947,-2542.84517518978,-2542.14411032574,-2541.36304165646,-2540.56199962664,-2539.75582674599,-2539.20000633736,-2538.94844594661,-2538.9332828655,-2538.9358560104,-2538.90303391522,-2538.64923482231,-2538.19260412024,-2537.58884530899,-2537.02700857394,-2536.56209159446,-2535.95772926179,-2535.20971824463,-2534.36225709053,-2533.49337479885,-2532.68089476291,-2532.17135278545,-2531.97269716608,-2532.0893302936,-2532.40999242636,-2532.77490478672,-2533.15446001236,-2533.40327155678,-2533.44095420776,-2533.21828733074,-2532.86348608945,-2532.45681375404,-2532.08524781318,-2531.94547924933,-2532.10766810725,-2532.41230005855,-2532.75122016333,-2533.10553971945,-2533.29737270644,-2533.30558063293,-2533.23876931323,-2533.1310528988,-2532.98399073454,-2532.96629711517,-2533.41332453565,-2534.81145170288,-2536.42688684659,-2538.25950863453,-2540.15356515834,-2541.77354316417,-2542.91459067497,-2544.23871137495,-2545.42646145478,-2546.48634985127,-2547.5069308251,-2548.27515898887,-2549.03349751655,-2550.10077569481,-2551.24560200513,-2552.28237112522,-2553.14538811366,-2553.79061531547,-2554.5904166158,-2555.76630634405,-2557.41392037136,-2559.07654796688,-2560.65018493002,-2561.7630594888,-2562.48799580782,-2562.85906801894,-2563.33246995479,-2563.89032568026,-2564.50811656981,-2565.11408452017
-2556.7853436505,-2556.85844770157,-2557.08813195457,-2557.33067872964,-2557.41950914657,-2557.07654582723,-2556.69709048471,-2556.31322550758,-2555.91723627514,-2555.66014358807,-2555.72796706765,-2555.66113336711,-2555.50512515721,-2555.46624206089,-2555.4922515307,-2555.59562405572,-2555.81459551635,-2556.0858579009,-2556.29923036535,-2556.52105428624,-2556.77209193705,-2557.04121467891,-2557.3284709413,-2557.54430673328,-2557.6600065554,-2557.8549302319,-2558.14807825768,-2558.56766959689,-2559.12586995968,-2559.78932983039,-2560.36600012064,-2560.81504767257,-2561.10524495031,-2561.25216844335,-2561.28558656884,-2561.25838428193,-2561.16705824212,-2560.77273905368,-2560.09754426215,-2559.42233288285,-2558.76556912682,-2558.09243620659,-2557.63156951375,-2557.3827686087,-2557.09000761087,-2556.74376128569,-2556.4249545038,-2556.25478870341,-2556.23310052529,-2556.31011934433,-2556.43140226699,-2556.64847272239,-2556.87463336969,-2557.28240303432,-2557.78406337987,-2558.40204231,-2559.05082878228,-2559.49694921134,-2559.56865209154,-2559.40270078263,-2559.12405821222,-2558.71915982947,-2558.40351757446,-2558.2022759658,-2558.0973241565,-2557.91312478238,-2557.53341078783,-2557.08798059675,-2556.55960526121,-2555.99241736649,-2555.65455579645,-2555.35947180875,-2555.10466499656,-2554.88294970975,-2554.5394464746,-2553.97735311038,-2553.5988838854,-2553.19716874689,-2552.77788265074,-2552.49062938182,-2552.19333703658,-2551.9120583533,-2551.59424523226,-2551.23064562717,-2550.80365909545,-2550.31229793433,-2549.71617261107,-2549.15375941705,-2548.53378347413,-2547.87238154301,-2547.26364125149,-2546.64891174942,-2546.01854363925,-2545.4510604235,-2544.84118317381,-2544.14011830977,-2543.35904964049,-2542.55800761067,-2541.75183473002,-2541.19601432139,-2540.94445393065,-2540.92929084953,-2540.93186399443,-2540.89904189925,-2540.64524280635,-2540.18861210427,-2539.58485329302,-2539.02301655797,-2538.55809957849,-2537.95373724582,-2537.20572622866,-2536.35826507456,-2535.48938278288,-2534.67690274694,-2534.16736076948,-2533.96870515011,-2534.08533827763,-2534.40600041039,-2534.77091277075,-2535.15046799639,-2535.39927954082,-2535.43696219179,-2535.21429531477,-2534.85949407348,-2534.45282173807,-2534.08125579721,-2533.94148723336,-2534.10367609128,-2534.40830804259,-2534.74722814736,-2535.10154770348,-2535.29338069048,-2535.30158861697,-2535.23477729726,-2535.12706088284,-2534.97999871858,-2534.9623050992,-2535.40933251968,-2536.80745968691,-2538.42289483063,-2540.25551661856,-2542.14957314237,-2543.7695511482,-2544.910598659,-2546.23471935898,-2547.42246943881,-2548.4823578353,-2549.50293880913,-2550.2711669729,-2551.02950550058,-2552.09678367884,-2553.24160998916,-2554.27837910925,-2555.1413960977,-2555.78662329951,-2556.58642459983,-2557.76231432808,-2559.40992835539,-2561.07255595091,-2562.64619291405,-2563.75906747283,-2564.48400379185,-2564.85507600297,-2565.32847793883,-2565.88633366429,-2566.50412455384,-2567.11009250421
-2558.78135163453,-2558.8544556856,-2559.08413993861,-2559.32668671367,-2559.4155171306,-2559.07255381126,-2558.69309846874,-2558.30923349161,-2557.91324425917,-2557.6561515721,-2557.72397505169,-2557.65714135114,-2557.50113314124,-2557.46225004492,-2557.48825951474,-2557.59163203975,-2557.81060350039,-2558.08186588493,-2558.29523834938,-2558.51706227028,-2558.76809992108,-2559.03722266294,-2559.32447892533,-2559.54031471731,-2559.65601453943,-2559.85093821594,-2560.14408624171,-2560.56367758092,-2561.12187794372,-2561.78533781442,-2562.36200810468,-2562.8110556566,-2563.10125293434,-2563.24817642739,-2563.28159455287,-2563.25439226596,-2563.16306622615,-2562.76874703771,-2562.09355224618,-2561.41834086689,-2560.76157711086,-2560.08844419062,-2559.62757749778,-2559.37877659273,-2559.0860155949,-2558.73976926972,-2558.42096248783,-2558.25079668744,-2558.22910850932,-2558.30612732837,-2558.42741025102,-2558.64448070642,-2558.87064135372,-2559.27841101835,-2559.7800713639,-2560.39805029403,-2561.04683676631,-2561.49295719537,-2561.56466007557,-2561.39870876667,-2561.12006619625,-2560.7151678135,-2560.39952555849,-2560.19828394983,-2560.09333214053,-2559.90913276641,-2559.52941877186,-2559.08398858078,-2558.55561324524,-2557.98842535052,-2557.65056378048,-2557.35547979279,-2557.10067298059,-2556.87895769378,-2556.53545445863,-2555.97336109441,-2555.59489186943,-2555.19317673092,-2554.77389063478,-2554.48663736585,-2554.18934502061,-2553.90806633733,-2553.59025321629,-2553.2266536112,-2552.79966707948,-2552.30830591836,-2551.7121805951,-2551.14976740108,-2550.52979145816,-2549.86838952705,-2549.25964923553,-2548.64491973345,-2548.01455162328,-2547.44706840753,-2546.83719115784,-2546.1361262938,-2545.35505762453,-2544.5540155947,-2543.74784271405,-2543.19202230542,-2542.94046191468,-2542.92529883356,-2542.92787197846,-2542.89504988329,-2542.64125079038,-2542.1846200883,-2541.58086127705,-2541.019024542,-2540.55410756252,-2539.94974522985,-2539.20173421269,-2538.35427305859,-2537.48539076692,-2536.67291073097,-2536.16336875351,-2535.96471313414,-2536.08134626167,-2536.40200839443,-2536.76692075478,-2537.14647598042,-2537.39528752485,-2537.43297017582,-2537.2103032988,-2536.85550205751,-2536.44882972211,-2536.07726378124,-2535.93749521739,-2536.09968407532,-2536.40431602662,-2536.74323613139,-2537.09755568751,-2537.28938867451,-2537.297596601,-2537.23078528129,-2537.12306886687,-2536.97600670261,-2536.95831308323,-2537.40534050371,-2538.80346767094,-2540.41890281466,-2542.25152460259,-2544.1455811264,-2545.76555913224,-2546.90660664304,-2548.23072734301,-2549.41847742284,-2550.47836581933,-2551.49894679316,-2552.26717495693,-2553.02551348461,-2554.09279166287,-2555.23761797319,-2556.27438709328,-2557.13740408173,-2557.78263128354,-2558.58243258386,-2559.75832231211,-2561.40593633942,-2563.06856393495,-2564.64220089808,-2565.75507545687,-2566.48001177588,-2566.851083987,-2567.32448592286,-2567.88234164832,-2568.50013253788,-2569.10610048824
-2560.77735961856,-2560.85046366963,-2561.08014792264,-2561.3226946977,-2561.41152511463,-2561.06856179529,-2560.68910645277,-2560.30524147564,-2559.90925224321,-2559.65215955613,-2559.71998303572,-2559.65314933517,-2559.49714112527,-2559.45825802895,-2559.48426749877,-2559.58764002378,-2559.80661148442,-2560.07787386897,-2560.29124633341,-2560.51307025431,-2560.76410790512,-2561.03323064697,-2561.32048690936,-2561.53632270134,-2561.65202252346,-2561.84694619997,-2562.14009422575,-2562.55968556495,-2563.11788592775,-2563.78134579845,-2564.35801608871,-2564.80706364064,-2565.09726091837,-2565.24418441142,-2565.2776025369,-2565.25040025,-2565.15907421018,-2564.76475502174,-2564.08956023021,-2563.41434885092,-2562.75758509489,-2562.08445217466,-2561.62358548181,-2561.37478457676,-2561.08202357893,-2560.73577725376,-2560.41697047186,-2560.24680467147,-2560.22511649335,-2560.3021353124,-2560.42341823505,-2560.64048869045,-2560.86664933775,-2561.27441900238,-2561.77607934793,-2562.39405827806,-2563.04284475034,-2563.4889651794,-2563.56066805961,-2563.3947167507,-2563.11607418028,-2562.71117579754,-2562.39553354253,-2562.19429193386,-2562.08934012457,-2561.90514075044,-2561.52542675589,-2561.07999656482,-2560.55162122927,-2559.98443333456,-2559.64657176451,-2559.35148777682,-2559.09668096463,-2558.87496567782,-2558.53146244266,-2557.96936907844,-2557.59089985346,-2557.18918471495,-2556.76989861881,-2556.48264534988,-2556.18535300464,-2555.90407432136,-2555.58626120032,-2555.22266159523,-2554.79567506351,-2554.30431390239,-2553.70818857914,-2553.14577538511,-2552.52579944219,-2551.86439751108,-2551.25565721956,-2550.64092771748,-2550.01055960731,-2549.44307639156,-2548.83319914187,-2548.13213427783,-2547.35106560856,-2546.55002357874,-2545.74385069808,-2545.18803028945,-2544.93646989871,-2544.92130681759,-2544.9238799625,-2544.89105786732,-2544.63725877441,-2544.18062807233,-2543.57686926108,-2543.01503252603,-2542.55011554655,-2541.94575321388,-2541.19774219672,-2540.35028104263,-2539.48139875095,-2538.66891871501,-2538.15937673755,-2537.96072111818,-2538.0773542457,-2538.39801637846,-2538.76292873881,-2539.14248396445,-2539.39129550888,-2539.42897815985,-2539.20631128283,-2538.85151004155,-2538.44483770614,-2538.07327176528,-2537.93350320142,-2538.09569205935,-2538.40032401065,-2538.73924411542,-2539.09356367154,-2539.28539665854,-2539.29360458503,-2539.22679326532,-2539.1190768509,-2538.97201468664,-2538.95432106726,-2539.40134848774,-2540.79947565497,-2542.41491079869,-2544.24753258662,-2546.14158911044,-2547.76156711627,-2548.90261462707,-2550.22673532704,-2551.41448540687,-2552.47437380336,-2553.49495477719,-2554.26318294097,-2555.02152146865,-2556.08879964691,-2557.23362595722,-2558.27039507731,-2559.13341206576,-2559.77863926757,-2560.57844056789,-2561.75433029615,-2563.40194432345,-2565.06457191898,-2566.63820888212,-2567.7510834409,-2568.47601975991,-2568.84709197103,-2569.32049390689,-2569.87834963235,-2570.49614052191,-2571.10210847227
-2562.77336760259,-2562.84647165367,-2563.07615590667,-2563.31870268173,-2563.40753309866,-2563.06456977932,-2562.68511443681,-2562.30124945968,-2561.90526022724,-2561.64816754016,-2561.71599101975,-2561.6491573192,-2561.4931491093,-2561.45426601298,-2561.4802754828,-2561.58364800781,-2561.80261946845,-2562.073881853,-2562.28725431744,-2562.50907823834,-2562.76011588915,-2563.029238631,-2563.31649489339,-2563.53233068537,-2563.64803050749,-2563.842954184,-2564.13610220978,-2564.55569354898,-2565.11389391178,-2565.77735378248,-2566.35402407274,-2566.80307162467,-2567.0932689024,-2567.24019239545,-2567.27361052093,-2567.24640823403,-2567.15508219421,-2566.76076300577,-2566.08556821424,-2565.41035683495,-2564.75359307892,-2564.08046015869,-2563.61959346585,-2563.37079256079,-2563.07803156297,-2562.73178523779,-2562.4129784559,-2562.24281265551,-2562.22112447738,-2562.29814329643,-2562.41942621908,-2562.63649667449,-2562.86265732178,-2563.27042698641,-2563.77208733196,-2564.39006626209,-2565.03885273437,-2565.48497316343,-2565.55667604364,-2565.39072473473,-2565.11208216431,-2564.70718378157,-2564.39154152656,-2564.19029991789,-2564.0853481086,-2563.90114873447,-2563.52143473993,-2563.07600454885,-2562.5476292133,-2561.98044131859,-2561.64257974854,-2561.34749576085,-2561.09268894866,-2560.87097366185,-2560.52747042669,-2559.96537706247,-2559.58690783749,-2559.18519269898,-2558.76590660284,-2558.47865333392,-2558.18136098867,-2557.9000823054,-2557.58226918435,-2557.21866957926,-2556.79168304754,-2556.30032188643,-2555.70419656317,-2555.14178336914,-2554.52180742622,-2553.86040549511,-2553.25166520359,-2552.63693570152,-2552.00656759134,-2551.43908437559,-2550.8292071259,-2550.12814226186,-2549.34707359259,-2548.54603156277,-2547.73985868211,-2547.18403827348,-2546.93247788274,-2546.91731480162,-2546.91988794653,-2546.88706585135,-2546.63326675844,-2546.17663605636,-2545.57287724512,-2545.01104051006,-2544.54612353059,-2543.94176119792,-2543.19375018076,-2542.34628902666,-2541.47740673498,-2540.66492669904,-2540.15538472158,-2539.95672910221,-2540.07336222973,-2540.39402436249,-2540.75893672285,-2541.13849194848,-2541.38730349291,-2541.42498614388,-2541.20231926687,-2540.84751802558,-2540.44084569017,-2540.06927974931,-2539.92951118545,-2540.09170004338,-2540.39633199468,-2540.73525209945,-2541.08957165557,-2541.28140464257,-2541.28961256906,-2541.22280124935,-2541.11508483493,-2540.96802267067,-2540.95032905129,-2541.39735647178,-2542.79548363901,-2544.41091878272,-2546.24354057065,-2548.13759709447,-2549.7575751003,-2550.8986226111,-2552.22274331108,-2553.4104933909,-2554.47038178739,-2555.49096276122,-2556.259190925,-2557.01752945268,-2558.08480763094,-2559.22963394125,-2560.26640306135,-2561.12942004979,-2561.7746472516,-2562.57444855192,-2563.75033828018,-2565.39795230748,-2567.06057990301,-2568.63421686615,-2569.74709142493,-2570.47202774395,-2570.84309995507,-2571.31650189092,-2571.87435761639,-2572.49214850594,-2573.0981164563
-2564.76937558662,-2564.8424796377,-2565.0721638907,-2565.31471066576,-2565.40354108269,-2565.06057776336,-2564.68112242084,-2564.29725744371,-2563.90126821127,-2563.64417552419,-2563.71199900378,-2563.64516530324,-2563.48915709334,-2563.45027399702,-2563.47628346683,-2563.57965599184,-2563.79862745248,-2564.06988983703,-2564.28326230148,-2564.50508622237,-2564.75612387318,-2565.02524661504,-2565.31250287743,-2565.52833866941,-2565.64403849153,-2565.83896216803,-2566.13211019381,-2566.55170153301,-2567.10990189581,-2567.77336176651,-2568.35003205677,-2568.7990796087,-2569.08927688644,-2569.23620037948,-2569.26961850497,-2569.24241621806,-2569.15109017825,-2568.7567709898,-2568.08157619827,-2567.40636481898,-2566.74960106295,-2566.07646814272,-2565.61560144988,-2565.36680054482,-2565.074039547,-2564.72779322182,-2564.40898643993,-2564.23882063954,-2564.21713246141,-2564.29415128046,-2564.41543420311,-2564.63250465852,-2564.85866530581,-2565.26643497044,-2565.768095316,-2566.38607424613,-2567.03486071841,-2567.48098114747,-2567.55268402767,-2567.38673271876,-2567.10809014834,-2566.7031917656,-2566.38754951059,-2566.18630790192,-2566.08135609263,-2565.89715671851,-2565.51744272396,-2565.07201253288,-2564.54363719734,-2563.97644930262,-2563.63858773257,-2563.34350374488,-2563.08869693269,-2562.86698164588,-2562.52347841072,-2561.96138504651,-2561.58291582153,-2561.18120068302,-2560.76191458687,-2560.47466131795,-2560.17736897271,-2559.89609028943,-2559.57827716838,-2559.2146775633,-2558.78769103158,-2558.29632987046,-2557.7002045472,-2557.13779135318,-2556.51781541025,-2555.85641347914,-2555.24767318762,-2554.63294368555,-2554.00257557537,-2553.43509235963,-2552.82521510994,-2552.12415024589,-2551.34308157662,-2550.5420395468,-2549.73586666615,-2549.18004625752,-2548.92848586677,-2548.91332278565,-2548.91589593056,-2548.88307383538,-2548.62927474247,-2548.1726440404,-2547.56888522915,-2547.0070484941,-2546.54213151462,-2545.93776918195,-2545.18975816479,-2544.34229701069,-2543.47341471901,-2542.66093468307,-2542.15139270561,-2541.95273708624,-2542.06937021376,-2542.39003234652,-2542.75494470688,-2543.13449993252,-2543.38331147694,-2543.42099412792,-2543.1983272509,-2542.84352600961,-2542.4368536742,-2542.06528773334,-2541.92551916949,-2542.08770802741,-2542.39233997871,-2542.73126008349,-2543.08557963961,-2543.2774126266,-2543.28562055309,-2543.21880923338,-2543.11109281896,-2542.9640306547,-2542.94633703533,-2543.39336445581,-2544.79149162304,-2546.40692676675,-2548.23954855469,-2550.1336050785,-2551.75358308433,-2552.89463059513,-2554.21875129511,-2555.40650137494,-2556.46638977143,-2557.48697074526,-2558.25519890903,-2559.01353743671,-2560.08081561497,-2561.22564192528,-2562.26241104538,-2563.12542803382,-2563.77065523563,-2564.57045653596,-2565.74634626421,-2567.39396029152,-2569.05658788704,-2570.63022485018,-2571.74309940896,-2572.46803572798,-2572.8391079391,-2573.31250987495,-2573.87036560042,-2574.48815648997,-2575.09412444033
-2566.76538357066,-2566.83848762173,-2567.06817187473,-2567.3107186498,-2567.39954906673,-2567.05658574739,-2566.67713040487,-2566.29326542774,-2565.8972761953,-2565.64018350823,-2565.70800698781,-2565.64117328727,-2565.48516507737,-2565.44628198105,-2565.47229145086,-2565.57566397588,-2565.79463543651,-2566.06589782106,-2566.27927028551,-2566.5010942064,-2566.75213185721,-2567.02125459907,-2567.30851086146,-2567.52434665344,-2567.64004647556,-2567.83497015206,-2568.12811817784,-2568.54770951705,-2569.10590987984,-2569.76936975055,-2570.3460400408,-2570.79508759273,-2571.08528487047,-2571.23220836351,-2571.265626489,-2571.23842420209,-2571.14709816228,-2570.75277897384,-2570.07758418231,-2569.40237280301,-2568.74560904698,-2568.07247612675,-2567.61160943391,-2567.36280852886,-2567.07004753103,-2566.72380120585,-2566.40499442396,-2566.23482862357,-2566.21314044545,-2566.29015926449,-2566.41144218715,-2566.62851264255,-2566.85467328985,-2567.26244295448,-2567.76410330003,-2568.38208223016,-2569.03086870244,-2569.4769891315,-2569.5486920117,-2569.38274070279,-2569.10409813238,-2568.69919974963,-2568.38355749462,-2568.18231588596,-2568.07736407666,-2567.89316470254,-2567.51345070799,-2567.06802051691,-2566.53964518137,-2565.97245728665,-2565.6345957166,-2565.33951172891,-2565.08470491672,-2564.86298962991,-2564.51948639476,-2563.95739303054,-2563.57892380556,-2563.17720866705,-2562.7579225709,-2562.47066930198,-2562.17337695674,-2561.89209827346,-2561.57428515242,-2561.21068554733,-2560.78369901561,-2560.29233785449,-2559.69621253123,-2559.13379933721,-2558.51382339429,-2557.85242146317,-2557.24368117165,-2556.62895166958,-2555.99858355941,-2555.43110034366,-2554.82122309397,-2554.12015822993,-2553.33908956065,-2552.53804753083,-2551.73187465018,-2551.17605424155,-2550.92449385081,-2550.90933076969,-2550.91190391459,-2550.87908181941,-2550.62528272651,-2550.16865202443,-2549.56489321318,-2549.00305647813,-2548.53813949865,-2547.93377716598,-2547.18576614882,-2546.33830499472,-2545.46942270304,-2544.6569426671,-2544.14740068964,-2543.94874507027,-2544.06537819779,-2544.38604033055,-2544.75095269091,-2545.13050791655,-2545.37931946098,-2545.41700211195,-2545.19433523493,-2544.83953399364,-2544.43286165823,-2544.06129571737,-2543.92152715352,-2544.08371601144,-2544.38834796275,-2544.72726806752,-2545.08158762364,-2545.27342061064,-2545.28162853713,-2545.21481721742,-2545.107100803,-2544.96003863874,-2544.94234501936,-2545.38937243984,-2546.78749960707,-2548.40293475079,-2550.23555653872,-2552.12961306253,-2553.74959106836,-2554.89063857916,-2556.21475927914,-2557.40250935897,-2558.46239775546,-2559.48297872929,-2560.25120689306,-2561.00954542074,-2562.076823599,-2563.22164990932,-2564.25841902941,-2565.12143601786,-2565.76666321967,-2566.56646451999,-2567.74235424824,-2569.38996827555,-2571.05259587107,-2572.62623283421,-2573.73910739299,-2574.46404371201,-2574.83511592313,-2575.30851785899,-2575.86637358445,-2576.484164474,-2577.09013242437
-2568.76139155469,-2568.83449560576,-2569.06417985877,-2569.30672663383,-2569.39555705076,-2569.05259373142,-2568.6731383889,-2568.28927341177,-2567.89328417933,-2567.63619149226,-2567.70401497185,-2567.6371812713,-2567.4811730614,-2567.44228996508,-2567.4682994349,-2567.57167195991,-2567.79064342055,-2568.06190580509,-2568.27527826954,-2568.49710219044,-2568.74813984124,-2569.0172625831,-2569.30451884549,-2569.52035463747,-2569.63605445959,-2569.8309781361,-2570.12412616187,-2570.54371750108,-2571.10191786388,-2571.76537773458,-2572.34204802484,-2572.79109557676,-2573.0812928545,-2573.22821634755,-2573.26163447303,-2573.23443218612,-2573.14310614631,-2572.74878695787,-2572.07359216634,-2571.39838078704,-2570.74161703102,-2570.06848411078,-2569.60761741794,-2569.35881651289,-2569.06605551506,-2568.71980918988,-2568.40100240799,-2568.2308366076,-2568.20914842948,-2568.28616724853,-2568.40745017118,-2568.62452062658,-2568.85068127388,-2569.25845093851,-2569.76011128406,-2570.37809021419,-2571.02687668647,-2571.47299711553,-2571.54469999573,-2571.37874868683,-2571.10010611641,-2570.69520773366,-2570.37956547865,-2570.17832386999,-2570.07337206069,-2569.88917268657,-2569.50945869202,-2569.06402850094,-2568.5356531654,-2567.96846527068,-2567.63060370064,-2567.33551971295,-2567.08071290075,-2566.85899761394,-2566.51549437879,-2565.95340101457,-2565.57493178959,-2565.17321665108,-2564.75393055494,-2564.46667728601,-2564.16938494077,-2563.88810625749,-2563.57029313645,-2563.20669353136,-2562.77970699964,-2562.28834583852,-2561.69222051526,-2561.12980732124,-2560.50983137832,-2559.84842944721,-2559.23968915568,-2558.62495965361,-2557.99459154344,-2557.42710832769,-2556.817231078,-2556.11616621396,-2555.33509754469,-2554.53405551486,-2553.72788263421,-2553.17206222558,-2552.92050183484,-2552.90533875372,-2552.90791189862,-2552.87508980345,-2552.62129071054,-2552.16466000846,-2551.56090119721,-2550.99906446216,-2550.53414748268,-2549.92978515001,-2549.18177413285,-2548.33431297875,-2547.46543068708,-2546.65295065113,-2546.14340867367,-2545.9447530543,-2546.06138618183,-2546.38204831458,-2546.74696067494,-2547.12651590058,-2547.37532744501,-2547.41301009598,-2547.19034321896,-2546.83554197767,-2546.42886964227,-2546.0573037014,-2545.91753513755,-2546.07972399548,-2546.38435594678,-2546.72327605155,-2547.07759560767,-2547.26942859467,-2547.27763652116,-2547.21082520145,-2547.10310878703,-2546.95604662277,-2546.93835300339,-2547.38538042387,-2548.7835075911,-2550.39894273482,-2552.23156452275,-2554.12562104656,-2555.7455990524,-2556.8866465632,-2558.21076726317,-2559.398517343,-2560.45840573949,-2561.47898671332,-2562.24721487709,-2563.00555340477,-2564.07283158303,-2565.21765789335,-2566.25442701344,-2567.11744400189,-2567.7626712037,-2568.56247250402,-2569.73836223227,-2571.38597625958,-2573.04860385511,-2574.62224081824,-2575.73511537703,-2576.46005169604,-2576.83112390716,-2577.30452584302,-2577.86238156848,-2578.48017245804,-2579.0861404084
-2570.75739953872,-2570.83050358979,-2571.0601878428,-2571.30273461786,-2571.39156503479,-2571.04860171545,-2570.66914637293,-2570.2852813958,-2569.88929216337,-2569.63219947629,-2569.70002295588,-2569.63318925533,-2569.47718104543,-2569.43829794911,-2569.46430741893,-2569.56767994394,-2569.78665140458,-2570.05791378913,-2570.27128625357,-2570.49311017447,-2570.74414782528,-2571.01327056713,-2571.30052682952,-2571.5163626215,-2571.63206244362,-2571.82698612013,-2572.12013414591,-2572.53972548511,-2573.09792584791,-2573.76138571861,-2574.33805600887,-2574.7871035608,-2575.07730083853,-2575.22422433158,-2575.25764245706,-2575.23044017016,-2575.13911413034,-2574.7447949419,-2574.06960015037,-2573.39438877108,-2572.73762501505,-2572.06449209482,-2571.60362540197,-2571.35482449692,-2571.06206349909,-2570.71581717392,-2570.39701039202,-2570.22684459163,-2570.20515641351,-2570.28217523256,-2570.40345815521,-2570.62052861061,-2570.84668925791,-2571.25445892254,-2571.75611926809,-2572.37409819822,-2573.0228846705,-2573.46900509956,-2573.54070797977,-2573.37475667086,-2573.09611410044,-2572.6912157177,-2572.37557346268,-2572.17433185402,-2572.06938004472,-2571.8851806706,-2571.50546667605,-2571.06003648498,-2570.53166114943,-2569.96447325472,-2569.62661168467,-2569.33152769698,-2569.07672088479,-2568.85500559797,-2568.51150236282,-2567.9494089986,-2567.57093977362,-2567.16922463511,-2566.74993853897,-2566.46268527004,-2566.1653929248,-2565.88411424152,-2565.56630112048,-2565.20270151539,-2564.77571498367,-2564.28435382255,-2563.6882284993,-2563.12581530527,-2562.50583936235,-2561.84443743124,-2561.23569713972,-2560.62096763764,-2559.99059952747,-2559.42311631172,-2558.81323906203,-2558.11217419799,-2557.33110552872,-2556.53006349889,-2555.72389061824,-2555.16807020961,-2554.91650981887,-2554.90134673775,-2554.90391988266,-2554.87109778748,-2554.61729869457,-2554.16066799249,-2553.55690918124,-2552.99507244619,-2552.53015546671,-2551.92579313404,-2551.17778211688,-2550.33032096279,-2549.46143867111,-2548.64895863516,-2548.13941665771,-2547.94076103833,-2548.05739416586,-2548.37805629862,-2548.74296865897,-2549.12252388461,-2549.37133542904,-2549.40901808001,-2549.18635120299,-2548.83154996171,-2548.4248776263,-2548.05331168544,-2547.91354312158,-2548.07573197951,-2548.38036393081,-2548.71928403558,-2549.0736035917,-2549.2654365787,-2549.27364450519,-2549.20683318548,-2549.09911677106,-2548.9520546068,-2548.93436098742,-2549.3813884079,-2550.77951557513,-2552.39495071885,-2554.22757250678,-2556.1216290306,-2557.74160703643,-2558.88265454723,-2560.2067752472,-2561.39452532703,-2562.45441372352,-2563.47499469735,-2564.24322286112,-2565.0015613888,-2566.06883956707,-2567.21366587738,-2568.25043499747,-2569.11345198592,-2569.75867918773,-2570.55848048805,-2571.73437021631,-2573.38198424361,-2575.04461183914,-2576.61824880228,-2577.73112336106,-2578.45605968007,-2578.82713189119,-2579.30053382705,-2579.85838955251,-2580.47618044207,-2581.08214839243
-2572.75340752275,-2572.82651157382,-2573.05619582683,-2573.29874260189,-2573.38757301882,-2573.04460969948,-2572.66515435697,-2572.28128937984,-2571.8853001474,-2571.62820746032,-2571.69603093991,-2571.62919723936,-2571.47318902946,-2571.43430593314,-2571.46031540296,-2571.56368792797,-2571.78265938861,-2572.05392177316,-2572.2672942376,-2572.4891181585,-2572.74015580931,-2573.00927855116,-2573.29653481355,-2573.51237060553,-2573.62807042765,-2573.82299410416,-2574.11614212994,-2574.53573346914,-2575.09393383194,-2575.75739370264,-2576.3340639929,-2576.78311154483,-2577.07330882256,-2577.22023231561,-2577.25365044109,-2577.22644815419,-2577.13512211437,-2576.74080292593,-2576.0656081344,-2575.39039675511,-2574.73363299908,-2574.06050007885,-2573.59963338601,-2573.35083248095,-2573.05807148313,-2572.71182515795,-2572.39301837606,-2572.22285257567,-2572.20116439754,-2572.27818321659,-2572.39946613924,-2572.61653659465,-2572.84269724194,-2573.25046690657,-2573.75212725212,-2574.37010618225,-2575.01889265453,-2575.46501308359,-2575.5367159638,-2575.37076465489,-2575.09212208447,-2574.68722370173,-2574.37158144672,-2574.17033983805,-2574.06538802876,-2573.88118865463,-2573.50147466009,-2573.05604446901,-2572.52766913346,-2571.96048123875,-2571.6226196687,-2571.32753568101,-2571.07272886882,-2570.85101358201,-2570.50751034685,-2569.94541698263,-2569.56694775765,-2569.16523261914,-2568.745946523,-2568.45869325408,-2568.16140090883,-2567.88012222556,-2567.56230910451,-2567.19870949942,-2566.7717229677,-2566.28036180659,-2565.68423648333,-2565.1218232893,-2564.50184734638,-2563.84044541527,-2563.23170512375,-2562.61697562168,-2561.9866075115,-2561.41912429575,-2560.80924704606,-2560.10818218202,-2559.32711351275,-2558.52607148293,-2557.71989860227,-2557.16407819364,-2556.9125178029,-2556.89735472178,-2556.89992786669,-2556.86710577151,-2556.6133066786,-2556.15667597652,-2555.55291716528,-2554.99108043022,-2554.52616345075,-2553.92180111808,-2553.17379010092,-2552.32632894682,-2551.45744665514,-2550.6449666192,-2550.13542464174,-2549.93676902237,-2550.05340214989,-2550.37406428265,-2550.73897664301,-2551.11853186864,-2551.36734341307,-2551.40502606404,-2551.18235918703,-2550.82755794574,-2550.42088561033,-2550.04931966947,-2549.90955110561,-2550.07173996354,-2550.37637191484,-2550.71529201961,-2551.06961157573,-2551.26144456273,-2551.26965248922,-2551.20284116951,-2551.09512475509,-2550.94806259083,-2550.93036897145,-2551.37739639194,-2552.77552355917,-2554.39095870288,-2556.22358049081,-2558.11763701463,-2559.73761502046,-2560.87866253126,-2562.20278323124,-2563.39053331106,-2564.45042170755,-2565.47100268138,-2566.23923084516,-2566.99756937284,-2568.0648475511,-2569.20967386141,-2570.24644298151,-2571.10945996995,-2571.75468717176,-2572.55448847208,-2573.73037820034,-2575.37799222764,-2577.04061982317,-2578.61425678631,-2579.72713134509,-2580.45206766411,-2580.82313987523,-2581.29654181108,-2581.85439753655,-2582.4721884261,-2583.07815637646
-2574.74941550678,-2574.82251955786,-2575.05220381086,-2575.29475058592,-2575.38358100285,-2575.04061768352,-2574.661162341,-2574.27729736387,-2573.88130813143,-2573.62421544435,-2573.69203892394,-2573.6252052234,-2573.4691970135,-2573.43031391718,-2573.45632338699,-2573.559695912,-2573.77866737264,-2574.04992975719,-2574.26330222164,-2574.48512614253,-2574.73616379334,-2575.0052865352,-2575.29254279759,-2575.50837858956,-2575.62407841169,-2575.81900208819,-2576.11215011397,-2576.53174145317,-2577.08994181597,-2577.75340168667,-2578.33007197693,-2578.77911952886,-2579.06931680659,-2579.21624029964,-2579.24965842512,-2579.22245613822,-2579.13113009841,-2578.73681090996,-2578.06161611843,-2577.38640473914,-2576.72964098311,-2576.05650806288,-2575.59564137004,-2575.34684046498,-2575.05407946716,-2574.70783314198,-2574.38902636009,-2574.2188605597,-2574.19717238157,-2574.27419120062,-2574.39547412327,-2574.61254457868,-2574.83870522597,-2575.2464748906,-2575.74813523616,-2576.36611416629,-2577.01490063857,-2577.46102106763,-2577.53272394783,-2577.36677263892,-2577.0881300685,-2576.68323168576,-2576.36758943075,-2576.16634782208,-2576.06139601279,-2575.87719663866,-2575.49748264412,-2575.05205245304,-2574.5236771175,-2573.95648922278,-2573.61862765273,-2573.32354366504,-2573.06873685285,-2572.84702156604,-2572.50351833088,-2571.94142496667,-2571.56295574169,-2571.16124060318,-2570.74195450703,-2570.45470123811,-2570.15740889287,-2569.87613020959,-2569.55831708854,-2569.19471748345,-2568.76773095174,-2568.27636979062,-2567.68024446736,-2567.11783127334,-2566.49785533041,-2565.8364533993,-2565.22771310778,-2564.61298360571,-2563.98261549553,-2563.41513227979,-2562.8052550301,-2562.10419016605,-2561.32312149678,-2560.52207946696,-2559.71590658631,-2559.16008617768,-2558.90852578693,-2558.89336270581,-2558.89593585072,-2558.86311375554,-2558.60931466263,-2558.15268396055,-2557.54892514931,-2556.98708841426,-2556.52217143478,-2555.91780910211,-2555.16979808495,-2554.32233693085,-2553.45345463917,-2552.64097460323,-2552.13143262577,-2551.9327770064,-2552.04941013392,-2552.37007226668,-2552.73498462704,-2553.11453985268,-2553.3633513971,-2553.40103404808,-2553.17836717106,-2552.82356592977,-2552.41689359436,-2552.0453276535,-2551.90555908965,-2552.06774794757,-2552.37237989887,-2552.71130000365,-2553.06561955976,-2553.25745254676,-2553.26566047325,-2553.19884915354,-2553.09113273912,-2552.94407057486,-2552.92637695549,-2553.37340437597,-2554.7715315432,-2556.38696668691,-2558.21958847485,-2560.11364499866,-2561.73362300449,-2562.87467051529,-2564.19879121527,-2565.3865412951,-2566.44642969159,-2567.46701066542,-2568.23523882919,-2568.99357735687,-2570.06085553513,-2571.20568184544,-2572.24245096554,-2573.10546795398,-2573.75069515579,-2574.55049645612,-2575.72638618437,-2577.37400021168,-2579.0366278072,-2580.61026477034,-2581.72313932912,-2582.44807564814,-2582.81914785926,-2583.29254979511,-2583.85040552058,-2584.46819641013,-2585.07416436049
-2576.74542349082,-2576.81852754189,-2577.04821179489,-2577.29075856996,-2577.37958898688,-2577.03662566755,-2576.65717032503,-2576.2733053479,-2575.87731611546,-2575.62022342838,-2575.68804690797,-2575.62121320743,-2575.46520499753,-2575.42632190121,-2575.45233137102,-2575.55570389604,-2575.77467535667,-2576.04593774122,-2576.25931020567,-2576.48113412656,-2576.73217177737,-2577.00129451923,-2577.28855078162,-2577.5043865736,-2577.62008639572,-2577.81501007222,-2578.108158098,-2578.52774943721,-2579.0859498,-2579.74940967071,-2580.32607996096,-2580.77512751289,-2581.06532479063,-2581.21224828367,-2581.24566640916,-2581.21846412225,-2581.12713808244,-2580.732818894,-2580.05762410247,-2579.38241272317,-2578.72564896714,-2578.05251604691,-2577.59164935407,-2577.34284844902,-2577.05008745119,-2576.70384112601,-2576.38503434412,-2576.21486854373,-2576.19318036561,-2576.27019918465,-2576.39148210731,-2576.60855256271,-2576.83471321,-2577.24248287463,-2577.74414322019,-2578.36212215032,-2579.0109086226,-2579.45702905166,-2579.52873193186,-2579.36278062295,-2579.08413805254,-2578.67923966979,-2578.36359741478,-2578.16235580612,-2578.05740399682,-2577.8732046227,-2577.49349062815,-2577.04806043707,-2576.51968510153,-2575.95249720681,-2575.61463563676,-2575.31955164907,-2575.06474483688,-2574.84302955007,-2574.49952631491,-2573.9374329507,-2573.55896372572,-2573.15724858721,-2572.73796249106,-2572.45070922214,-2572.1534168769,-2571.87213819362,-2571.55432507257,-2571.19072546749,-2570.76373893577,-2570.27237777465,-2569.67625245139,-2569.11383925737,-2568.49386331445,-2567.83246138333,-2567.22372109181,-2566.60899158974,-2565.97862347957,-2565.41114026382,-2564.80126301413,-2564.10019815009,-2563.31912948081,-2562.51808745099,-2561.71191457034,-2561.15609416171,-2560.90453377097,-2560.88937068985,-2560.89194383475,-2560.85912173957,-2560.60532264667,-2560.14869194459,-2559.54493313334,-2558.98309639829,-2558.51817941881,-2557.91381708614,-2557.16580606898,-2556.31834491488,-2555.4494626232,-2554.63698258726,-2554.1274406098,-2553.92878499043,-2554.04541811795,-2554.36608025071,-2554.73099261107,-2555.11054783671,-2555.35935938114,-2555.39704203211,-2555.17437515509,-2554.8195739138,-2554.41290157839,-2554.04133563753,-2553.90156707368,-2554.0637559316,-2554.36838788291,-2554.70730798768,-2555.0616275438,-2555.2534605308,-2555.26166845728,-2555.19485713758,-2555.08714072316,-2554.9400785589,-2554.92238493952,-2555.36941236,-2556.76753952723,-2558.38297467095,-2560.21559645888,-2562.10965298269,-2563.72963098852,-2564.87067849932,-2566.1947991993,-2567.38254927913,-2568.44243767562,-2569.46301864945,-2570.23124681322,-2570.9895853409,-2572.05686351916,-2573.20168982948,-2574.23845894957,-2575.10147593801,-2575.74670313983,-2576.54650444015,-2577.7223941684,-2579.37000819571,-2581.03263579123,-2582.60627275437,-2583.71914731315,-2584.44408363217,-2584.81515584329,-2585.28855777915,-2585.84641350461,-2586.46420439416,-2587.07017234452
-2578.74143147485,-2578.81453552592,-2579.04421977893,-2579.28676655399,-2579.37559697092,-2579.03263365158,-2578.65317830906,-2578.26931333193,-2577.87332409949,-2577.61623141242,-2577.68405489201,-2577.61722119146,-2577.46121298156,-2577.42232988524,-2577.44833935505,-2577.55171188007,-2577.77068334071,-2578.04194572525,-2578.2553181897,-2578.4771421106,-2578.7281797614,-2578.99730250326,-2579.28455876565,-2579.50039455763,-2579.61609437975,-2579.81101805626,-2580.10416608203,-2580.52375742124,-2581.08195778404,-2581.74541765474,-2582.322087945,-2582.77113549692,-2583.06133277466,-2583.20825626771,-2583.24167439319,-2583.21447210628,-2583.12314606647,-2582.72882687803,-2582.0536320865,-2581.3784207072,-2580.72165695118,-2580.04852403094,-2579.5876573381,-2579.33885643305,-2579.04609543522,-2578.69984911004,-2578.38104232815,-2578.21087652776,-2578.18918834964,-2578.26620716868,-2578.38749009134,-2578.60456054674,-2578.83072119404,-2579.23849085867,-2579.74015120422,-2580.35813013435,-2581.00691660663,-2581.45303703569,-2581.52473991589,-2581.35878860698,-2581.08014603657,-2580.67524765382,-2580.35960539881,-2580.15836379015,-2580.05341198085,-2579.86921260673,-2579.48949861218,-2579.0440684211,-2578.51569308556,-2577.94850519084,-2577.6106436208,-2577.31555963311,-2577.06075282091,-2576.8390375341,-2576.49553429895,-2575.93344093473,-2575.55497170975,-2575.15325657124,-2574.73397047509,-2574.44671720617,-2574.14942486093,-2573.86814617765,-2573.55033305661,-2573.18673345152,-2572.7597469198,-2572.26838575868,-2571.67226043542,-2571.1098472414,-2570.48987129848,-2569.82846936737,-2569.21972907584,-2568.60499957377,-2567.9746314636,-2567.40714824785,-2566.79727099816,-2566.09620613412,-2565.31513746485,-2564.51409543502,-2563.70792255437,-2563.15210214574,-2562.900541755,-2562.88537867388,-2562.88795181878,-2562.8551297236,-2562.6013306307,-2562.14469992862,-2561.54094111737,-2560.97910438232,-2560.51418740284,-2559.90982507017,-2559.16181405301,-2558.31435289891,-2557.44547060724,-2556.63299057129,-2556.12344859383,-2555.92479297446,-2556.04142610199,-2556.36208823474,-2556.7270005951,-2557.10655582074,-2557.35536736517,-2557.39305001614,-2557.17038313912,-2556.81558189783,-2556.40890956243,-2556.03734362156,-2555.89757505771,-2556.05976391563,-2556.36439586694,-2556.70331597171,-2557.05763552783,-2557.24946851483,-2557.25767644132,-2557.19086512161,-2557.08314870719,-2556.93608654293,-2556.91839292355,-2557.36542034403,-2558.76354751126,-2560.37898265498,-2562.21160444291,-2564.10566096672,-2565.72563897256,-2566.86668648336,-2568.19080718333,-2569.37855726316,-2570.43844565965,-2571.45902663348,-2572.22725479725,-2572.98559332493,-2574.05287150319,-2575.19769781351,-2576.2344669336,-2577.09748392205,-2577.74271112386,-2578.54251242418,-2579.71840215243,-2581.36601617974,-2583.02864377526,-2584.6022807384,-2585.71515529719,-2586.4400916162,-2586.81116382732,-2587.28456576318,-2587.84242148864,-2588.4602123782,-2589.06618032856
