-2547.97438931906,-2548.99482960147,-2550.015814262,-2551.05099483607,-2552.13014348204,-2553.20644634212,-2554.24392979348,-2555.23384957729,-2556.15218873913,-2556.94748730962,-2557.6476294263,-2558.35679035917,-2559.08764291254,-2559.74737037673,-2560.35805344744,-2560.92568094333,-2561.43349806636,-2561.96532669807,-2562.42291678406,-2562.63399648025,-2562.64698395058,-2562.43380696923,-2561.94837007658,-2561.39859276356,-2561.03190588425,-2560.80397108532,-2560.71335444519,-2560.74346635931,-2560.92413472577,-2561.15248033139,-2561.39115226835,-2561.42098471959,-2561.09941718137,-2560.68168661418,-2560.28423580406,-2559.88307344548,-2559.6616481583,-2559.62652279241,-2559.54542506287,-2559.5161687953,-2559.55040564934,-2559.59449520694,-2559.78112618256,-2560.06107102491,-2560.27628111222,-2560.48382332123,-2560.72619391131,-2560.98732021168,-2561.25328467396,-2561.48529883427,-2561.62606560654,-2561.75690178055,-2561.9892055398,-2562.32818884232,-2562.78509907887,-2563.36460579748,-2563.98880457387,-2564.50577781989,-2564.90270199389,-2565.11115574134,-2565.14520263494,-2564.76295009801,-2564.08075264724,-2563.36558217791,-2562.63785473034,-2561.84005745999,-2561.27003013418,-2560.889735892,-2560.55491369142,-2560.37914862436,-2560.35808459994,-2560.42991701551,-2560.62420566099,-2560.83922865176,-2561.11616764568,-2561.53379051388,-2562.05049361213,-2562.5983026455,-2563.15395037283,-2563.55327031291,-2563.70774499221,-2563.68273084004,-2563.4771681431,-2563.15931014047,-2562.82218349514,-2562.54748650166,-2562.33360477514,-2562.20955231181,-2562.12605833124,-2562.03567977392,-2561.94402290189,-2561.71307745958,-2561.33928837482,-2560.90088754656,-2560.41105900103,-2559.88625162368,-2559.5395800405,-2559.43758194062,-2559.36285568862,-2559.21048809011,-2559.08277112559,-2558.95916536221,-2558.64518559914,-2558.25101100448,-2557.94531064385,-2557.62823939631,-2557.30008128034,-2557.05602563072,-2556.86158985277,-2556.6660568763,-2556.49777006481,-2556.29334949037,-2556.04414996774,-2555.84337684943,-2555.70624660331,-2555.52909845728,-2555.28970977491,-2555.03782740609,-2554.74809121251,-2554.33074082245,-2553.84449554248,-2553.40285770355,-2552.96979533479,-2552.43004694189,-2551.85338606021,-2551.29248707185,-2550.67372248588,-2550.01011136648,-2549.32331378339,-2548.48693330022,-2547.54208647088,-2546.55888124569,-2545.72943221382,-2545.23986461972,-2545.02682558458,-2544.95662844733,-2544.88993811943,-2544.62493188491,-2544.09501194706,-2543.49359830888,-2542.93235909119,-2542.41405709829,-2541.81218440595,-2541.10415432148,-2540.28956310474,-2539.43635832564,-2538.68678497361,-2538.32355877351,-2538.37701186524,-2538.66510971907,-2539.03954218797,-2539.36107540918,-2539.45738902156,-2539.22694590965,-2538.88176201763,-2538.49879425915,-2538.14765575579,-2537.85489434972,-2537.84393994252,-2538.12351814705,-2538.44405732315,-2538.77946596774,-2539.10137002698,-2539.23939630039,-2539.12452781954,-2539.01117484205,-2539.0055660761
-2549.97039730309,-2550.9908375855,-2552.01182224603,-2553.04700282011,-2554.12615146607,-2555.20245432615,-2556.23993777751,-2557.22985756132,-2558.14819672316,-2558.94349529365,-2559.64363741034,-2560.35279834321,-2561.08365089658,-2561.74337836077,-2562.35406143147,-2562.92168892736,-2563.42950605039,-2563.9613346821,-2564.41892476809,-2564.63000446428,-2564.64299193461,-2564.42981495327,-2563.94437806061,-2563.39460074759,-2563.02791386828,-2562.79997906935,-2562.70936242922,-2562.73947434334,-2562.92014270981,-2563.14848831542,-2563.38716025238,-2563.41699270362,-2563.0954251654,-2562.67769459821,-2562.28024378809,-2561.87908142951,-2561.65765614233,-2561.62253077645,-2561.5414330469,-2561.51217677933,-2561.54641363337,-2561.59050319097,-2561.77713416659,-2562.05707900895,-2562.27228909625,-2562.47983130526,-2562.72220189535,-2562.98332819571,-2563.24929265799,-2563.4813068183,-2563.62207359057,-2563.75290976458,-2563.98521352383,-2564.32419682635,-2564.7811070629,-2565.36061378151,-2565.9848125579,-2566.50178580392,-2566.89870997792,-2567.10716372538,-2567.14121061897,-2566.75895808204,-2566.07676063127,-2565.36159016194,-2564.63386271437,-2563.83606544402,-2563.26603811821,-2562.88574387604,-2562.55092167546,-2562.37515660839,-2562.35409258397,-2562.42592499954,-2562.62021364502,-2562.83523663579,-2563.11217562971,-2563.52979849791,-2564.04650159616,-2564.59431062953,-2565.14995835686,-2565.54927829694,-2565.70375297624,-2565.67873882408,-2565.47317612713,-2565.15531812451,-2564.81819147917,-2564.5434944857,-2564.32961275917,-2564.20556029585,-2564.12206631527,-2564.03168775796,-2563.94003088592,-2563.70908544361,-2563.33529635885,-2562.89689553059,-2562.40706698506,-2561.88225960771,-2561.53558802454,-2561.43358992465,-2561.35886367265,-2561.20649607414,-2561.07877910962,-2560.95517334624,-2560.64119358317,-2560.24701898851,-2559.94131862788,-2559.62424738034,-2559.29608926437,-2559.05203361475,-2558.85759783681,-2558.66206486034,-2558.49377804884,-2558.2893574744,-2558.04015795177,-2557.83938483346,-2557.70225458734,-2557.52510644131,-2557.28571775894,-2557.03383539012,-2556.74409919654,-2556.32674880648,-2555.84050352651,-2555.39886568758,-2554.96580331882,-2554.42605492592,-2553.84939404424,-2553.28849505588,-2552.66973046991,-2552.00611935051,-2551.31932176742,-2550.48294128425,-2549.53809445491,-2548.55488922972,-2547.72544019785,-2547.23587260375,-2547.02283356862,-2546.95263643136,-2546.88594610347,-2546.62093986894,-2546.09101993109,-2545.48960629291,-2544.92836707522,-2544.41006508232,-2543.80819238998,-2543.10016230551,-2542.28557108877,-2541.43236630967,-2540.68279295764,-2540.31956675755,-2540.37301984927,-2540.66111770311,-2541.035550172,-2541.35708339321,-2541.45339700559,-2541.22295389368,-2540.87777000166,-2540.49480224318,-2540.14366373982,-2539.85090233375,-2539.83994792655,-2540.11952613108,-2540.44006530718,-2540.77547395177,-2541.09737801101,-2541.23540428442,-2541.12053580357,-2541.00718282608,-2541.00157406013
-2551.96640528712,-2552.98684556953,-2554.00783023006,-2555.04301080414,-2556.1221594501,-2557.19846231018,-2558.23594576154,-2559.22586554536,-2560.14420470719,-2560.93950327768,-2561.63964539437,-2562.34880632724,-2563.07965888061,-2563.7393863448,-2564.3500694155,-2564.9176969114,-2565.42551403443,-2565.95734266613,-2566.41493275212,-2566.62601244832,-2566.63899991864,-2566.4258229373,-2565.94038604464,-2565.39060873163,-2565.02392185231,-2564.79598705338,-2564.70537041325,-2564.73548232738,-2564.91615069384,-2565.14449629945,-2565.38316823641,-2565.41300068765,-2565.09143314944,-2564.67370258224,-2564.27625177212,-2563.87508941355,-2563.65366412636,-2563.61853876048,-2563.53744103093,-2563.50818476336,-2563.5424216174,-2563.586511175,-2563.77314215062,-2564.05308699298,-2564.26829708028,-2564.47583928929,-2564.71820987938,-2564.97933617974,-2565.24530064202,-2565.47731480234,-2565.6180815746,-2565.74891774862,-2565.98122150787,-2566.32020481038,-2566.77711504693,-2567.35662176555,-2567.98082054193,-2568.49779378795,-2568.89471796195,-2569.10317170941,-2569.13721860301,-2568.75496606607,-2568.0727686153,-2567.35759814597,-2566.6298706984,-2565.83207342805,-2565.26204610224,-2564.88175186007,-2564.54692965949,-2564.37116459243,-2564.350100568,-2564.42193298357,-2564.61622162906,-2564.83124461983,-2565.10818361374,-2565.52580648195,-2566.04250958019,-2566.59031861356,-2567.14596634089,-2567.54528628097,-2567.69976096027,-2567.67474680811,-2567.46918411116,-2567.15132610854,-2566.8141994632,-2566.53950246973,-2566.3256207432,-2566.20156827988,-2566.1180742993,-2566.02769574199,-2565.93603886995,-2565.70509342765,-2565.33130434288,-2564.89290351462,-2564.40307496909,-2563.87826759174,-2563.53159600857,-2563.42959790868,-2563.35487165668,-2563.20250405818,-2563.07478709365,-2562.95118133027,-2562.6372015672,-2562.24302697255,-2561.93732661191,-2561.62025536438,-2561.2920972484,-2561.04804159879,-2560.85360582084,-2560.65807284437,-2560.48978603287,-2560.28536545843,-2560.03616593581,-2559.83539281749,-2559.69826257137,-2559.52111442535,-2559.28172574298,-2559.02984337415,-2558.74010718058,-2558.32275679052,-2557.83651151054,-2557.39487367161,-2556.96181130285,-2556.42206290996,-2555.84540202827,-2555.28450303992,-2554.66573845394,-2554.00212733455,-2553.31532975145,-2552.47894926828,-2551.53410243894,-2550.55089721376,-2549.72144818188,-2549.23188058778,-2549.01884155265,-2548.9486444154,-2548.8819540875,-2548.61694785297,-2548.08702791513,-2547.48561427694,-2546.92437505925,-2546.40607306636,-2545.80420037401,-2545.09617028954,-2544.2815790728,-2543.4283742937,-2542.67880094167,-2542.31557474158,-2542.36902783331,-2542.65712568714,-2543.03155815603,-2543.35309137724,-2543.44940498962,-2543.21896187771,-2542.87377798569,-2542.49081022721,-2542.13967172385,-2541.84691031779,-2541.83595591059,-2542.11553411511,-2542.43607329121,-2542.7714819358,-2543.09338599504,-2543.23141226845,-2543.1165437876,-2543.00319081012,-2542.99758204416
-2553.96241327115,-2554.98285355357,-2556.00383821409,-2557.03901878817,-2558.11816743414,-2559.19447029421,-2560.23195374557,-2561.22187352939,-2562.14021269122,-2562.93551126171,-2563.6356533784,-2564.34481431127,-2565.07566686464,-2565.73539432883,-2566.34607739953,-2566.91370489543,-2567.42152201846,-2567.95335065016,-2568.41094073615,-2568.62202043235,-2568.63500790267,-2568.42183092133,-2567.93639402867,-2567.38661671566,-2567.01992983634,-2566.79199503741,-2566.70137839728,-2566.73149031141,-2566.91215867787,-2567.14050428349,-2567.37917622044,-2567.40900867169,-2567.08744113347,-2566.66971056627,-2566.27225975616,-2565.87109739758,-2565.64967211039,-2565.61454674451,-2565.53344901496,-2565.5041927474,-2565.53842960144,-2565.58251915904,-2565.76915013465,-2566.04909497701,-2566.26430506431,-2566.47184727333,-2566.71421786341,-2566.97534416377,-2567.24130862605,-2567.47332278637,-2567.61408955863,-2567.74492573265,-2567.9772294919,-2568.31621279441,-2568.77312303096,-2569.35262974958,-2569.97682852596,-2570.49380177198,-2570.89072594598,-2571.09917969344,-2571.13322658704,-2570.7509740501,-2570.06877659934,-2569.35360613001,-2568.62587868243,-2567.82808141208,-2567.25805408627,-2566.8777598441,-2566.54293764352,-2566.36717257646,-2566.34610855203,-2566.4179409676,-2566.61222961309,-2566.82725260386,-2567.10419159777,-2567.52181446598,-2568.03851756423,-2568.5863265976,-2569.14197432492,-2569.541294265,-2569.6957689443,-2569.67075479214,-2569.4651920952,-2569.14733409257,-2568.81020744723,-2568.53551045376,-2568.32162872724,-2568.19757626391,-2568.11408228333,-2568.02370372602,-2567.93204685398,-2567.70110141168,-2567.32731232691,-2566.88891149865,-2566.39908295312,-2565.87427557577,-2565.5276039926,-2565.42560589271,-2565.35087964071,-2565.19851204221,-2565.07079507768,-2564.9471893143,-2564.63320955124,-2564.23903495658,-2563.93333459594,-2563.61626334841,-2563.28810523244,-2563.04404958282,-2562.84961380487,-2562.6540808284,-2562.4857940169,-2562.28137344246,-2562.03217391984,-2561.83140080153,-2561.6942705554,-2561.51712240938,-2561.27773372701,-2561.02585135818,-2560.73611516461,-2560.31876477455,-2559.83251949457,-2559.39088165564,-2558.95781928688,-2558.41807089399,-2557.84141001231,-2557.28051102395,-2556.66174643798,-2555.99813531858,-2555.31133773548,-2554.47495725231,-2553.53011042297,-2552.54690519779,-2551.71745616591,-2551.22788857181,-2551.01484953668,-2550.94465239943,-2550.87796207153,-2550.61295583701,-2550.08303589916,-2549.48162226097,-2548.92038304328,-2548.40208105039,-2547.80020835804,-2547.09217827357,-2546.27758705684,-2545.42438227773,-2544.6748089257,-2544.31158272561,-2544.36503581734,-2544.65313367117,-2545.02756614007,-2545.34909936127,-2545.44541297365,-2545.21496986174,-2544.86978596972,-2544.48681821124,-2544.13567970788,-2543.84291830182,-2543.83196389462,-2544.11154209914,-2544.43208127524,-2544.76748991984,-2545.08939397907,-2545.22742025248,-2545.11255177163,-2544.99919879415,-2544.99359002819
-2555.95842125519,-2556.9788615376,-2557.99984619812,-2559.0350267722,-2560.11417541817,-2561.19047827824,-2562.2279617296,-2563.21788151342,-2564.13622067525,-2564.93151924574,-2565.63166136243,-2566.3408222953,-2567.07167484867,-2567.73140231286,-2568.34208538357,-2568.90971287946,-2569.41753000249,-2569.94935863419,-2570.40694872019,-2570.61802841638,-2570.6310158867,-2570.41783890536,-2569.93240201271,-2569.38262469969,-2569.01593782037,-2568.78800302145,-2568.69738638131,-2568.72749829544,-2568.9081666619,-2569.13651226752,-2569.37518420447,-2569.40501665572,-2569.0834491175,-2568.6657185503,-2568.26826774019,-2567.86710538161,-2567.64568009443,-2567.61055472854,-2567.52945699899,-2567.50020073143,-2567.53443758547,-2567.57852714307,-2567.76515811869,-2568.04510296104,-2568.26031304834,-2568.46785525736,-2568.71022584744,-2568.9713521478,-2569.23731661008,-2569.4693307704,-2569.61009754266,-2569.74093371668,-2569.97323747593,-2570.31222077845,-2570.76913101499,-2571.34863773361,-2571.97283650999,-2572.48980975602,-2572.88673393001,-2573.09518767747,-2573.12923457107,-2572.74698203414,-2572.06478458337,-2571.34961411404,-2570.62188666646,-2569.82408939612,-2569.2540620703,-2568.87376782813,-2568.53894562755,-2568.36318056049,-2568.34211653607,-2568.41394895163,-2568.60823759712,-2568.82326058789,-2569.1001995818,-2569.51782245001,-2570.03452554826,-2570.58233458163,-2571.13798230895,-2571.53730224903,-2571.69177692833,-2571.66676277617,-2571.46120007923,-2571.1433420766,-2570.80621543126,-2570.53151843779,-2570.31763671127,-2570.19358424794,-2570.11009026737,-2570.01971171005,-2569.92805483801,-2569.69710939571,-2569.32332031095,-2568.88491948268,-2568.39509093715,-2567.8702835598,-2567.52361197663,-2567.42161387675,-2567.34688762475,-2567.19452002624,-2567.06680306171,-2566.94319729833,-2566.62921753527,-2566.23504294061,-2565.92934257998,-2565.61227133244,-2565.28411321647,-2565.04005756685,-2564.8456217889,-2564.65008881243,-2564.48180200094,-2564.27738142649,-2564.02818190387,-2563.82740878556,-2563.69027853943,-2563.51313039341,-2563.27374171104,-2563.02185934221,-2562.73212314864,-2562.31477275858,-2561.8285274786,-2561.38688963967,-2560.95382727091,-2560.41407887802,-2559.83741799634,-2559.27651900798,-2558.65775442201,-2557.99414330261,-2557.30734571951,-2556.47096523635,-2555.52611840701,-2554.54291318182,-2553.71346414994,-2553.22389655584,-2553.01085752071,-2552.94066038346,-2552.87397005556,-2552.60896382104,-2552.07904388319,-2551.47763024501,-2550.91639102731,-2550.39808903442,-2549.79621634208,-2549.0881862576,-2548.27359504087,-2547.42039026176,-2546.67081690973,-2546.30759070964,-2546.36104380137,-2546.6491416552,-2547.0235741241,-2547.3451073453,-2547.44142095769,-2547.21097784578,-2546.86579395375,-2546.48282619527,-2546.13168769191,-2545.83892628585,-2545.82797187865,-2546.10755008317,-2546.42808925928,-2546.76349790387,-2547.0854019631,-2547.22342823651,-2547.10855975566,-2546.99520677818,-2546.98959801222
-2557.95442923922,-2558.97486952163,-2559.99585418215,-2561.03103475623,-2562.1101834022,-2563.18648626228,-2564.22396971364,-2565.21388949745,-2566.13222865929,-2566.92752722978,-2567.62766934646,-2568.33683027933,-2569.0676828327,-2569.72741029689,-2570.3380933676,-2570.90572086349,-2571.41353798652,-2571.94536661823,-2572.40295670422,-2572.61403640041,-2572.62702387074,-2572.41384688939,-2571.92840999674,-2571.37863268372,-2571.01194580441,-2570.78401100548,-2570.69339436535,-2570.72350627947,-2570.90417464593,-2571.13252025155,-2571.37119218851,-2571.40102463975,-2571.07945710153,-2570.66172653434,-2570.26427572422,-2569.86311336564,-2569.64168807846,-2569.60656271257,-2569.52546498303,-2569.49620871546,-2569.5304455695,-2569.5745351271,-2569.76116610272,-2570.04111094507,-2570.25632103238,-2570.46386324139,-2570.70623383147,-2570.96736013184,-2571.23332459412,-2571.46533875443,-2571.6061055267,-2571.73694170071,-2571.96924545996,-2572.30822876248,-2572.76513899903,-2573.34464571764,-2573.96884449403,-2574.48581774005,-2574.88274191404,-2575.0911956615,-2575.1252425551,-2574.74299001817,-2574.0607925674,-2573.34562209807,-2572.6178946505,-2571.82009738015,-2571.25007005433,-2570.86977581216,-2570.53495361158,-2570.35918854452,-2570.3381245201,-2570.40995693567,-2570.60424558115,-2570.81926857192,-2571.09620756584,-2571.51383043404,-2572.03053353229,-2572.57834256566,-2573.13399029299,-2573.53331023307,-2573.68778491237,-2573.6627707602,-2573.45720806326,-2573.13935006063,-2572.80222341529,-2572.52752642182,-2572.3136446953,-2572.18959223197,-2572.1060982514,-2572.01571969408,-2571.92406282205,-2571.69311737974,-2571.31932829498,-2570.88092746671,-2570.39109892119,-2569.86629154384,-2569.51961996066,-2569.41762186078,-2569.34289560878,-2569.19052801027,-2569.06281104575,-2568.93920528236,-2568.6252255193,-2568.23105092464,-2567.92535056401,-2567.60827931647,-2567.2801212005,-2567.03606555088,-2566.84162977293,-2566.64609679646,-2566.47780998497,-2566.27338941052,-2566.0241898879,-2565.82341676959,-2565.68628652347,-2565.50913837744,-2565.26974969507,-2565.01786732625,-2564.72813113267,-2564.31078074261,-2563.82453546264,-2563.38289762371,-2562.94983525495,-2562.41008686205,-2561.83342598037,-2561.27252699201,-2560.65376240604,-2559.99015128664,-2559.30335370355,-2558.46697322038,-2557.52212639104,-2556.53892116585,-2555.70947213397,-2555.21990453987,-2555.00686550474,-2554.93666836749,-2554.86997803959,-2554.60497180507,-2554.07505186722,-2553.47363822904,-2552.91239901135,-2552.39409701845,-2551.79222432611,-2551.08419424163,-2550.2696030249,-2549.4163982458,-2548.66682489376,-2548.30359869367,-2548.3570517854,-2548.64514963923,-2549.01958210813,-2549.34111532933,-2549.43742894172,-2549.20698582981,-2548.86180193779,-2548.4788341793,-2548.12769567595,-2547.83493426988,-2547.82397986268,-2548.10355806721,-2548.42409724331,-2548.7595058879,-2549.08140994714,-2549.21943622054,-2549.1045677397,-2548.99121476221,-2548.98560599626
-2559.95043722325,-2560.97087750566,-2561.99186216619,-2563.02704274027,-2564.10619138623,-2565.18249424631,-2566.21997769767,-2567.20989748148,-2568.12823664332,-2568.92353521381,-2569.62367733049,-2570.33283826337,-2571.06369081674,-2571.72341828093,-2572.33410135163,-2572.90172884752,-2573.40954597055,-2573.94137460226,-2574.39896468825,-2574.61004438444,-2574.62303185477,-2574.40985487343,-2573.92441798077,-2573.37464066775,-2573.00795378844,-2572.78001898951,-2572.68940234938,-2572.7195142635,-2572.90018262997,-2573.12852823558,-2573.36720017254,-2573.39703262378,-2573.07546508556,-2572.65773451837,-2572.26028370825,-2571.85912134967,-2571.63769606249,-2571.60257069661,-2571.52147296706,-2571.49221669949,-2571.52645355353,-2571.57054311113,-2571.75717408675,-2572.0371189291,-2572.25232901641,-2572.45987122542,-2572.70224181551,-2572.96336811587,-2573.22933257815,-2573.46134673846,-2573.60211351073,-2573.73294968474,-2573.96525344399,-2574.30423674651,-2574.76114698306,-2575.34065370167,-2575.96485247806,-2576.48182572408,-2576.87874989808,-2577.08720364554,-2577.12125053913,-2576.7389980022,-2576.05680055143,-2575.3416300821,-2574.61390263453,-2573.81610536418,-2573.24607803837,-2572.8657837962,-2572.53096159562,-2572.35519652855,-2572.33413250413,-2572.4059649197,-2572.60025356518,-2572.81527655595,-2573.09221554987,-2573.50983841807,-2574.02654151632,-2574.57435054969,-2575.12999827702,-2575.5293182171,-2575.6837928964,-2575.65877874424,-2575.45321604729,-2575.13535804467,-2574.79823139933,-2574.52353440586,-2574.30965267933,-2574.18560021601,-2574.10210623543,-2574.01172767812,-2573.92007080608,-2573.68912536377,-2573.31533627901,-2572.87693545075,-2572.38710690522,-2571.86229952787,-2571.5156279447,-2571.41362984481,-2571.33890359281,-2571.1865359943,-2571.05881902978,-2570.9352132664,-2570.62123350333,-2570.22705890867,-2569.92135854804,-2569.6042873005,-2569.27612918453,-2569.03207353491,-2568.83763775697,-2568.6421047805,-2568.473817969,-2568.26939739456,-2568.02019787193,-2567.81942475362,-2567.6822945075,-2567.50514636147,-2567.2657576791,-2567.01387531028,-2566.7241391167,-2566.30678872664,-2565.82054344667,-2565.37890560774,-2564.94584323898,-2564.40609484608,-2563.8294339644,-2563.26853497604,-2562.64977039007,-2561.98615927067,-2561.29936168758,-2560.46298120441,-2559.51813437507,-2558.53492914988,-2557.70548011801,-2557.21591252391,-2557.00287348878,-2556.93267635152,-2556.86598602363,-2556.6009797891,-2556.07105985125,-2555.46964621307,-2554.90840699538,-2554.39010500248,-2553.78823231014,-2553.08020222567,-2552.26561100893,-2551.41240622983,-2550.6628328778,-2550.29960667771,-2550.35305976943,-2550.64115762327,-2551.01559009216,-2551.33712331337,-2551.43343692575,-2551.20299381384,-2550.85780992182,-2550.47484216334,-2550.12370365998,-2549.83094225391,-2549.81998784671,-2550.09956605124,-2550.42010522734,-2550.75551387193,-2551.07741793117,-2551.21544420458,-2551.10057572373,-2550.98722274624,-2550.98161398029
-2561.94644520728,-2562.96688548969,-2563.98787015022,-2565.0230507243,-2566.10219937026,-2567.17850223034,-2568.2159856817,-2569.20590546552,-2570.12424462735,-2570.91954319784,-2571.61968531453,-2572.3288462474,-2573.05969880077,-2573.71942626496,-2574.33010933566,-2574.89773683156,-2575.40555395459,-2575.93738258629,-2576.39497267228,-2576.60605236848,-2576.6190398388,-2576.40586285746,-2575.9204259648,-2575.37064865178,-2575.00396177247,-2574.77602697354,-2574.68541033341,-2574.71552224754,-2574.896190614,-2575.12453621961,-2575.36320815657,-2575.39304060781,-2575.07147306959,-2574.6537425024,-2574.25629169228,-2573.85512933371,-2573.63370404652,-2573.59857868064,-2573.51748095109,-2573.48822468352,-2573.52246153756,-2573.56655109516,-2573.75318207078,-2574.03312691314,-2574.24833700044,-2574.45587920945,-2574.69824979954,-2574.9593760999,-2575.22534056218,-2575.4573547225,-2575.59812149476,-2575.72895766878,-2575.96126142802,-2576.30024473054,-2576.75715496709,-2577.33666168571,-2577.96086046209,-2578.47783370811,-2578.87475788211,-2579.08321162957,-2579.11725852317,-2578.73500598623,-2578.05280853546,-2577.33763806613,-2576.60991061856,-2575.81211334821,-2575.2420860224,-2574.86179178023,-2574.52696957965,-2574.35120451259,-2574.33014048816,-2574.40197290373,-2574.59626154922,-2574.81128453999,-2575.0882235339,-2575.50584640211,-2576.02254950035,-2576.57035853372,-2577.12600626105,-2577.52532620113,-2577.67980088043,-2577.65478672827,-2577.44922403132,-2577.1313660287,-2576.79423938336,-2576.51954238989,-2576.30566066336,-2576.18160820004,-2576.09811421946,-2576.00773566215,-2575.91607879011,-2575.68513334781,-2575.31134426304,-2574.87294343478,-2574.38311488925,-2573.8583075119,-2573.51163592873,-2573.40963782884,-2573.33491157684,-2573.18254397834,-2573.05482701381,-2572.93122125043,-2572.61724148736,-2572.2230668927,-2571.91736653207,-2571.60029528454,-2571.27213716856,-2571.02808151895,-2570.833645741,-2570.63811276453,-2570.46982595303,-2570.26540537859,-2570.01620585597,-2569.81543273765,-2569.67830249153,-2569.50115434551,-2569.26176566314,-2569.00988329431,-2568.72014710073,-2568.30279671067,-2567.8165514307,-2567.37491359177,-2566.94185122301,-2566.40210283012,-2565.82544194843,-2565.26454296008,-2564.6457783741,-2563.98216725471,-2563.29536967161,-2562.45898918844,-2561.5141423591,-2560.53093713392,-2559.70148810204,-2559.21192050794,-2558.99888147281,-2558.92868433556,-2558.86199400766,-2558.59698777313,-2558.06706783529,-2557.4656541971,-2556.90441497941,-2556.38611298652,-2555.78424029417,-2555.0762102097,-2554.26161899296,-2553.40841421386,-2552.65884086183,-2552.29561466174,-2552.34906775346,-2552.6371656073,-2553.01159807619,-2553.3331312974,-2553.42944490978,-2553.19900179787,-2552.85381790585,-2552.47085014737,-2552.11971164401,-2551.82695023795,-2551.81599583075,-2552.09557403527,-2552.41611321137,-2552.75152185596,-2553.0734259152,-2553.21145218861,-2553.09658370776,-2552.98323073027,-2552.97762196432
-2563.94245319131,-2564.96289347372,-2565.98387813425,-2567.01905870833,-2568.09820735429,-2569.17451021437,-2570.21199366573,-2571.20191344955,-2572.12025261138,-2572.91555118187,-2573.61569329856,-2574.32485423143,-2575.0557067848,-2575.71543424899,-2576.32611731969,-2576.89374481559,-2577.40156193862,-2577.93339057032,-2578.39098065631,-2578.60206035251,-2578.61504782283,-2578.40187084149,-2577.91643394883,-2577.36665663582,-2576.9999697565,-2576.77203495757,-2576.68141831744,-2576.71153023157,-2576.89219859803,-2577.12054420365,-2577.3592161406,-2577.38904859185,-2577.06748105363,-2576.64975048643,-2576.25229967632,-2575.85113731774,-2575.62971203055,-2575.59458666467,-2575.51348893512,-2575.48423266756,-2575.5184695216,-2575.5625590792,-2575.74919005481,-2576.02913489717,-2576.24434498447,-2576.45188719349,-2576.69425778357,-2576.95538408393,-2577.22134854621,-2577.45336270653,-2577.59412947879,-2577.72496565281,-2577.95726941206,-2578.29625271457,-2578.75316295112,-2579.33266966974,-2579.95686844612,-2580.47384169214,-2580.87076586614,-2581.0792196136,-2581.1132665072,-2580.73101397026,-2580.0488165195,-2579.33364605017,-2578.60591860259,-2577.80812133224,-2577.23809400643,-2576.85779976426,-2576.52297756368,-2576.34721249662,-2576.32614847219,-2576.39798088776,-2576.59226953325,-2576.80729252402,-2577.08423151793,-2577.50185438614,-2578.01855748438,-2578.56636651775,-2579.12201424508,-2579.52133418516,-2579.67580886446,-2579.6507947123,-2579.44523201535,-2579.12737401273,-2578.79024736739,-2578.51555037392,-2578.3016686474,-2578.17761618407,-2578.09412220349,-2578.00374364618,-2577.91208677414,-2577.68114133184,-2577.30735224707,-2576.86895141881,-2576.37912287328,-2575.85431549593,-2575.50764391276,-2575.40564581287,-2575.33091956087,-2575.17855196237,-2575.05083499784,-2574.92722923446,-2574.6132494714,-2574.21907487674,-2573.9133745161,-2573.59630326857,-2573.2681451526,-2573.02408950298,-2572.82965372503,-2572.63412074856,-2572.46583393706,-2572.26141336262,-2572.01221384,-2571.81144072169,-2571.67431047556,-2571.49716232954,-2571.25777364717,-2571.00589127834,-2570.71615508477,-2570.29880469471,-2569.81255941473,-2569.3709215758,-2568.93785920704,-2568.39811081415,-2567.82144993246,-2567.26055094411,-2566.64178635814,-2565.97817523874,-2565.29137765564,-2564.45499717247,-2563.51015034313,-2562.52694511795,-2561.69749608607,-2561.20792849197,-2560.99488945684,-2560.92469231959,-2560.85800199169,-2560.59299575717,-2560.06307581932,-2559.46166218113,-2558.90042296344,-2558.38212097055,-2557.7802482782,-2557.07221819373,-2556.257626977,-2555.40442219789,-2554.65484884586,-2554.29162264577,-2554.3450757375,-2554.63317359133,-2555.00760606023,-2555.32913928143,-2555.42545289381,-2555.1950097819,-2554.84982588988,-2554.4668581314,-2554.11571962804,-2553.82295822198,-2553.81200381478,-2554.0915820193,-2554.4121211954,-2554.74752984,-2555.06943389923,-2555.20746017264,-2555.09259169179,-2554.97923871431,-2554.97362994835
-2565.93846117535,-2566.95890145776,-2567.97988611828,-2569.01506669236,-2570.09421533833,-2571.1705181984,-2572.20800164976,-2573.19792143358,-2574.11626059541,-2574.9115591659,-2575.61170128259,-2576.32086221546,-2577.05171476883,-2577.71144223302,-2578.32212530372,-2578.88975279962,-2579.39756992265,-2579.92939855435,-2580.38698864035,-2580.59806833654,-2580.61105580686,-2580.39787882552,-2579.91244193287,-2579.36266461985,-2578.99597774053,-2578.76804294161,-2578.67742630147,-2578.7075382156,-2578.88820658206,-2579.11655218768,-2579.35522412463,-2579.38505657588,-2579.06348903766,-2578.64575847046,-2578.24830766035,-2577.84714530177,-2577.62572001459,-2577.5905946487,-2577.50949691915,-2577.48024065159,-2577.51447750563,-2577.55856706323,-2577.74519803885,-2578.0251428812,-2578.2403529685,-2578.44789517752,-2578.6902657676,-2578.95139206796,-2579.21735653024,-2579.44937069056,-2579.59013746282,-2579.72097363684,-2579.95327739609,-2580.29226069861,-2580.74917093515,-2581.32867765377,-2581.95287643015,-2582.46984967618,-2582.86677385017,-2583.07522759763,-2583.10927449123,-2582.7270219543,-2582.04482450353,-2581.3296540342,-2580.60192658662,-2579.80412931628,-2579.23410199046,-2578.85380774829,-2578.51898554771,-2578.34322048065,-2578.32215645623,-2578.39398887179,-2578.58827751728,-2578.80330050805,-2579.08023950196,-2579.49786237017,-2580.01456546842,-2580.56237450179,-2581.11802222911,-2581.51734216919,-2581.67181684849,-2581.64680269633,-2581.44123999939,-2581.12338199676,-2580.78625535142,-2580.51155835795,-2580.29767663143,-2580.1736241681,-2580.09013018753,-2579.99975163021,-2579.90809475817,-2579.67714931587,-2579.30336023111,-2578.86495940284,-2578.37513085731,-2577.85032347996,-2577.50365189679,-2577.40165379691,-2577.32692754491,-2577.1745599464,-2577.04684298187,-2576.92323721849,-2576.60925745543,-2576.21508286077,-2575.90938250013,-2575.5923112526,-2575.26415313663,-2575.02009748701,-2574.82566170906,-2574.63012873259,-2574.46184192109,-2574.25742134665,-2574.00822182403,-2573.80744870572,-2573.67031845959,-2573.49317031357,-2573.2537816312,-2573.00189926237,-2572.7121630688,-2572.29481267874,-2571.80856739876,-2571.36692955983,-2570.93386719107,-2570.39411879818,-2569.8174579165,-2569.25655892814,-2568.63779434217,-2567.97418322277,-2567.28738563967,-2566.45100515651,-2565.50615832716,-2564.52295310198,-2563.6935040701,-2563.203936476,-2562.99089744087,-2562.92070030362,-2562.85400997572,-2562.5890037412,-2562.05908380335,-2561.45767016516,-2560.89643094747,-2560.37812895458,-2559.77625626224,-2559.06822617776,-2558.25363496103,-2557.40043018192,-2556.65085682989,-2556.2876306298,-2556.34108372153,-2556.62918157536,-2557.00361404426,-2557.32514726546,-2557.42146087785,-2557.19101776594,-2556.84583387391,-2556.46286611543,-2556.11172761207,-2555.81896620601,-2555.80801179881,-2556.08759000333,-2556.40812917943,-2556.74353782403,-2557.06544188326,-2557.20346815667,-2557.08859967582,-2556.97524669834,-2556.96963793238
-2567.93446915938,-2568.95490944179,-2569.97589410231,-2571.01107467639,-2572.09022332236,-2573.16652618244,-2574.2040096338,-2575.19392941761,-2576.11226857945,-2576.90756714994,-2577.60770926662,-2578.31687019949,-2579.04772275286,-2579.70745021705,-2580.31813328776,-2580.88576078365,-2581.39357790668,-2581.92540653839,-2582.38299662438,-2582.59407632057,-2582.6070637909,-2582.39388680955,-2581.9084499169,-2581.35867260388,-2580.99198572456,-2580.76405092564,-2580.67343428551,-2580.70354619963,-2580.88421456609,-2581.11256017171,-2581.35123210867,-2581.38106455991,-2581.05949702169,-2580.6417664545,-2580.24431564438,-2579.8431532858,-2579.62172799862,-2579.58660263273,-2579.50550490319,-2579.47624863562,-2579.51048548966,-2579.55457504726,-2579.74120602288,-2580.02115086523,-2580.23636095254,-2580.44390316155,-2580.68627375163,-2580.947400052,-2581.21336451428,-2581.44537867459,-2581.58614544686,-2581.71698162087,-2581.94928538012,-2582.28826868264,-2582.74517891919,-2583.3246856378,-2583.94888441419,-2584.46585766021,-2584.8627818342,-2585.07123558166,-2585.10528247526,-2584.72302993833,-2584.04083248756,-2583.32566201823,-2582.59793457066,-2581.80013730031,-2581.23010997449,-2580.84981573232,-2580.51499353174,-2580.33922846468,-2580.31816444026,-2580.38999685583,-2580.58428550131,-2580.79930849208,-2581.076247486,-2581.4938703542,-2582.01057345245,-2582.55838248582,-2583.11403021315,-2583.51335015323,-2583.66782483253,-2583.64281068036,-2583.43724798342,-2583.11938998079,-2582.78226333545,-2582.50756634198,-2582.29368461546,-2582.16963215213,-2582.08613817156,-2581.99575961424,-2581.9041027422,-2581.6731572999,-2581.29936821514,-2580.86096738687,-2580.37113884135,-2579.846331464,-2579.49965988082,-2579.39766178094,-2579.32293552894,-2579.17056793043,-2579.04285096591,-2578.91924520252,-2578.60526543946,-2578.2110908448,-2577.90539048417,-2577.58831923663,-2577.26016112066,-2577.01610547104,-2576.82166969309,-2576.62613671662,-2576.45784990513,-2576.25342933068,-2576.00422980806,-2575.80345668975,-2575.66632644363,-2575.4891782976,-2575.24978961523,-2574.99790724641,-2574.70817105283,-2574.29082066277,-2573.8045753828,-2573.36293754387,-2572.92987517511,-2572.39012678221,-2571.81346590053,-2571.25256691217,-2570.6338023262,-2569.9701912068,-2569.28339362371,-2568.44701314054,-2567.5021663112,-2566.51896108601,-2565.68951205413,-2565.19994446003,-2564.9869054249,-2564.91670828765,-2564.85001795975,-2564.58501172523,-2564.05509178738,-2563.4536781492,-2562.89243893151,-2562.37413693861,-2561.77226424627,-2561.06423416179,-2560.24964294506,-2559.39643816596,-2558.64686481392,-2558.28363861383,-2558.33709170556,-2558.62518955939,-2558.99962202829,-2559.32115524949,-2559.41746886188,-2559.18702574997,-2558.84184185794,-2558.45887409946,-2558.10773559611,-2557.81497419004,-2557.80401978284,-2558.08359798737,-2558.40413716347,-2558.73954580806,-2559.0614498673,-2559.1994761407,-2559.08460765986,-2558.97125468237,-2558.96564591642
-2569.93047714341,-2570.95091742582,-2571.97190208635,-2573.00708266043,-2574.08623130639,-2575.16253416647,-2576.20001761783,-2577.18993740164,-2578.10827656348,-2578.90357513397,-2579.60371725065,-2580.31287818353,-2581.0437307369,-2581.70345820109,-2582.31414127179,-2582.88176876768,-2583.38958589071,-2583.92141452242,-2584.37900460841,-2584.5900843046,-2584.60307177493,-2584.38989479359,-2583.90445790093,-2583.35468058791,-2582.9879937086,-2582.76005890967,-2582.66944226954,-2582.69955418366,-2582.88022255012,-2583.10856815574,-2583.3472400927,-2583.37707254394,-2583.05550500572,-2582.63777443853,-2582.24032362841,-2581.83916126983,-2581.61773598265,-2581.58261061677,-2581.50151288722,-2581.47225661965,-2581.50649347369,-2581.55058303129,-2581.73721400691,-2582.01715884926,-2582.23236893657,-2582.43991114558,-2582.68228173567,-2582.94340803603,-2583.20937249831,-2583.44138665862,-2583.58215343089,-2583.7129896049,-2583.94529336415,-2584.28427666667,-2584.74118690322,-2585.32069362183,-2585.94489239822,-2586.46186564424,-2586.85878981824,-2587.06724356569,-2587.10129045929,-2586.71903792236,-2586.03684047159,-2585.32167000226,-2584.59394255469,-2583.79614528434,-2583.22611795853,-2582.84582371635,-2582.51100151577,-2582.33523644871,-2582.31417242429,-2582.38600483986,-2582.58029348534,-2582.79531647611,-2583.07225547003,-2583.48987833823,-2584.00658143648,-2584.55439046985,-2585.11003819718,-2585.50935813726,-2585.66383281656,-2585.6388186644,-2585.43325596745,-2585.11539796482,-2584.77827131949,-2584.50357432602,-2584.28969259949,-2584.16564013617,-2584.08214615559,-2583.99176759828,-2583.90011072624,-2583.66916528393,-2583.29537619917,-2582.85697537091,-2582.36714682538,-2581.84233944803,-2581.49566786486,-2581.39366976497,-2581.31894351297,-2581.16657591446,-2581.03885894994,-2580.91525318656,-2580.60127342349,-2580.20709882883,-2579.9013984682,-2579.58432722066,-2579.25616910469,-2579.01211345507,-2578.81767767713,-2578.62214470066,-2578.45385788916,-2578.24943731472,-2578.00023779209,-2577.79946467378,-2577.66233442766,-2577.48518628163,-2577.24579759926,-2576.99391523044,-2576.70417903686,-2576.2868286468,-2575.80058336683,-2575.3589455279,-2574.92588315914,-2574.38613476624,-2573.80947388456,-2573.2485748962,-2572.62981031023,-2571.96619919083,-2571.27940160774,-2570.44302112457,-2569.49817429523,-2568.51496907004,-2567.68552003817,-2567.19595244407,-2566.98291340894,-2566.91271627168,-2566.84602594379,-2566.58101970926,-2566.05109977141,-2565.44968613323,-2564.88844691554,-2564.37014492264,-2563.7682722303,-2563.06024214583,-2562.24565092909,-2561.39244614999,-2560.64287279796,-2560.27964659787,-2560.33309968959,-2560.62119754343,-2560.99563001232,-2561.31716323353,-2561.41347684591,-2561.183033734,-2560.83784984198,-2560.4548820835,-2560.10374358014,-2559.81098217407,-2559.80002776687,-2560.0796059714,-2560.4001451475,-2560.73555379209,-2561.05745785133,-2561.19548412474,-2561.08061564389,-2560.9672626664,-2560.96165390045
-2571.92648512744,-2572.94692540985,-2573.96791007038,-2575.00309064446,-2576.08223929042,-2577.1585421505,-2578.19602560186,-2579.18594538568,-2580.10428454751,-2580.899583118,-2581.59972523469,-2582.30888616756,-2583.03973872093,-2583.69946618512,-2584.31014925582,-2584.87777675172,-2585.38559387475,-2585.91742250645,-2586.37501259244,-2586.58609228864,-2586.59907975896,-2586.38590277762,-2585.90046588496,-2585.35068857194,-2584.98400169263,-2584.7560668937,-2584.66545025357,-2584.6955621677,-2584.87623053416,-2585.10457613977,-2585.34324807673,-2585.37308052797,-2585.05151298975,-2584.63378242256,-2584.23633161244,-2583.83516925387,-2583.61374396668,-2583.5786186008,-2583.49752087125,-2583.46826460368,-2583.50250145772,-2583.54659101532,-2583.73322199094,-2584.0131668333,-2584.2283769206,-2584.43591912961,-2584.6782897197,-2584.93941602006,-2585.20538048234,-2585.43739464266,-2585.57816141492,-2585.70899758893,-2585.94130134818,-2586.2802846507,-2586.73719488725,-2587.31670160587,-2587.94090038225,-2588.45787362827,-2588.85479780227,-2589.06325154973,-2589.09729844333,-2588.71504590639,-2588.03284845562,-2587.31767798629,-2586.58995053872,-2585.79215326837,-2585.22212594256,-2584.84183170039,-2584.50700949981,-2584.33124443275,-2584.31018040832,-2584.38201282389,-2584.57630146938,-2584.79132446015,-2585.06826345406,-2585.48588632227,-2586.00258942051,-2586.55039845388,-2587.10604618121,-2587.50536612129,-2587.65984080059,-2587.63482664843,-2587.42926395148,-2587.11140594886,-2586.77427930352,-2586.49958231005,-2586.28570058352,-2586.1616481202,-2586.07815413962,-2585.98777558231,-2585.89611871027,-2585.66517326797,-2585.2913841832,-2584.85298335494,-2584.36315480941,-2583.83834743206,-2583.49167584889,-2583.389677749,-2583.314951497,-2583.1625838985,-2583.03486693397,-2582.91126117059,-2582.59728140752,-2582.20310681286,-2581.89740645223,-2581.5803352047,-2581.25217708872,-2581.0081214391,-2580.81368566116,-2580.61815268469,-2580.44986587319,-2580.24544529875,-2579.99624577613,-2579.79547265781,-2579.65834241169,-2579.48119426567,-2579.2418055833,-2578.98992321447,-2578.70018702089,-2578.28283663083,-2577.79659135086,-2577.35495351193,-2576.92189114317,-2576.38214275028,-2575.80548186859,-2575.24458288023,-2574.62581829426,-2573.96220717486,-2573.27540959177,-2572.4390291086,-2571.49418227926,-2570.51097705408,-2569.6815280222,-2569.1919604281,-2568.97892139297,-2568.90872425572,-2568.84203392782,-2568.57702769329,-2568.04710775544,-2567.44569411726,-2566.88445489957,-2566.36615290668,-2565.76428021433,-2565.05625012986,-2564.24165891312,-2563.38845413402,-2562.63888078199,-2562.2756545819,-2562.32910767362,-2562.61720552746,-2562.99163799635,-2563.31317121756,-2563.40948482994,-2563.17904171803,-2562.83385782601,-2562.45089006753,-2562.09975156417,-2561.8069901581,-2561.7960357509,-2562.07561395543,-2562.39615313153,-2562.73156177612,-2563.05346583536,-2563.19149210877,-2563.07662362792,-2562.96327065043,-2562.95766188448
-2573.92249311147,-2574.94293339388,-2575.96391805441,-2576.99909862849,-2578.07824727445,-2579.15455013453,-2580.19203358589,-2581.18195336971,-2582.10029253154,-2582.89559110203,-2583.59573321872,-2584.30489415159,-2585.03574670496,-2585.69547416915,-2586.30615723985,-2586.87378473575,-2587.38160185878,-2587.91343049048,-2588.37102057647,-2588.58210027267,-2588.59508774299,-2588.38191076165,-2587.89647386899,-2587.34669655598,-2586.98000967666,-2586.75207487773,-2586.6614582376,-2586.69157015173,-2586.87223851819,-2587.10058412381,-2587.33925606076,-2587.36908851201,-2587.04752097379,-2586.62979040659,-2586.23233959648,-2585.8311772379,-2585.60975195071,-2585.57462658483,-2585.49352885528,-2585.46427258772,-2585.49850944176,-2585.54259899936,-2585.72922997497,-2586.00917481733,-2586.22438490463,-2586.43192711365,-2586.67429770373,-2586.93542400409,-2587.20138846637,-2587.43340262669,-2587.57416939895,-2587.70500557297,-2587.93730933222,-2588.27629263473,-2588.73320287128,-2589.3127095899,-2589.93690836628,-2590.4538816123,-2590.8508057863,-2591.05925953376,-2591.09330642736,-2590.71105389042,-2590.02885643966,-2589.31368597033,-2588.58595852275,-2587.7881612524,-2587.21813392659,-2586.83783968442,-2586.50301748384,-2586.32725241678,-2586.30618839235,-2586.37802080792,-2586.57230945341,-2586.78733244418,-2587.06427143809,-2587.4818943063,-2587.99859740454,-2588.54640643791,-2589.10205416524,-2589.50137410532,-2589.65584878462,-2589.63083463246,-2589.42527193551,-2589.10741393289,-2588.77028728755,-2588.49559029408,-2588.28170856756,-2588.15765610423,-2588.07416212365,-2587.98378356634,-2587.8921266943,-2587.661181252,-2587.28739216723,-2586.84899133897,-2586.35916279344,-2585.83435541609,-2585.48768383292,-2585.38568573303,-2585.31095948103,-2585.15859188253,-2585.030874918,-2584.90726915462,-2584.59328939156,-2584.1991147969,-2583.89341443626,-2583.57634318873,-2583.24818507276,-2583.00412942314,-2582.80969364519,-2582.61416066872,-2582.44587385722,-2582.24145328278,-2581.99225376016,-2581.79148064185,-2581.65435039572,-2581.4772022497,-2581.23781356733,-2580.9859311985,-2580.69619500493,-2580.27884461487,-2579.79259933489,-2579.35096149596,-2578.9178991272,-2578.37815073431,-2577.80148985262,-2577.24059086427,-2576.6218262783,-2575.9582151589,-2575.2714175758,-2574.43503709263,-2573.49019026329,-2572.50698503811,-2571.67753600623,-2571.18796841213,-2570.974929377,-2570.90473223975,-2570.83804191185,-2570.57303567733,-2570.04311573948,-2569.44170210129,-2568.8804628836,-2568.36216089071,-2567.76028819836,-2567.05225811389,-2566.23766689716,-2565.38446211805,-2564.63488876602,-2564.27166256593,-2564.32511565766,-2564.61321351149,-2564.98764598039,-2565.30917920159,-2565.40549281397,-2565.17504970206,-2564.82986581004,-2564.44689805156,-2564.0957595482,-2563.80299814214,-2563.79204373494,-2564.07162193946,-2564.39216111556,-2564.72756976016,-2565.04947381939,-2565.1875000928,-2565.07263161195,-2564.95927863447,-2564.95366986851
-2575.91850109551,-2576.93894137792,-2577.95992603844,-2578.99510661252,-2580.07425525849,-2581.15055811856,-2582.18804156992,-2583.17796135374,-2584.09630051557,-2584.89159908606,-2585.59174120275,-2586.30090213562,-2587.03175468899,-2587.69148215318,-2588.30216522388,-2588.86979271978,-2589.37760984281,-2589.90943847451,-2590.36702856051,-2590.5781082567,-2590.59109572702,-2590.37791874568,-2589.89248185303,-2589.34270454001,-2588.97601766069,-2588.74808286176,-2588.65746622163,-2588.68757813576,-2588.86824650222,-2589.09659210784,-2589.33526404479,-2589.36509649604,-2589.04352895782,-2588.62579839062,-2588.22834758051,-2587.82718522193,-2587.60575993475,-2587.57063456886,-2587.48953683931,-2587.46028057175,-2587.49451742579,-2587.53860698339,-2587.72523795901,-2588.00518280136,-2588.22039288866,-2588.42793509768,-2588.67030568776,-2588.93143198812,-2589.1973964504,-2589.42941061072,-2589.57017738298,-2589.701013557,-2589.93331731625,-2590.27230061877,-2590.72921085531,-2591.30871757393,-2591.93291635031,-2592.44988959634,-2592.84681377033,-2593.05526751779,-2593.08931441139,-2592.70706187446,-2592.02486442369,-2591.30969395436,-2590.58196650678,-2589.78416923644,-2589.21414191062,-2588.83384766845,-2588.49902546787,-2588.32326040081,-2588.30219637639,-2588.37402879195,-2588.56831743744,-2588.78334042821,-2589.06027942212,-2589.47790229033,-2589.99460538858,-2590.54241442195,-2591.09806214927,-2591.49738208935,-2591.65185676865,-2591.62684261649,-2591.42127991955,-2591.10342191692,-2590.76629527158,-2590.49159827811,-2590.27771655159,-2590.15366408826,-2590.07017010769,-2589.97979155037,-2589.88813467833,-2589.65718923603,-2589.28340015126,-2588.844999323,-2588.35517077747,-2587.83036340012,-2587.48369181695,-2587.38169371707,-2587.30696746507,-2587.15459986656,-2587.02688290203,-2586.90327713865,-2586.58929737559,-2586.19512278093,-2585.88942242029,-2585.57235117276,-2585.24419305679,-2585.00013740717,-2584.80570162922,-2584.61016865275,-2584.44188184125,-2584.23746126681,-2583.98826174419,-2583.78748862588,-2583.65035837975,-2583.47321023373,-2583.23382155136,-2582.98193918253,-2582.69220298896,-2582.2748525989,-2581.78860731892,-2581.34696947999,-2580.91390711123,-2580.37415871834,-2579.79749783666,-2579.2365988483,-2578.61783426233,-2577.95422314293,-2577.26742555983,-2576.43104507667,-2575.48619824732,-2574.50299302214,-2573.67354399026,-2573.18397639616,-2572.97093736103,-2572.90074022378,-2572.83404989588,-2572.56904366136,-2572.03912372351,-2571.43771008532,-2570.87647086763,-2570.35816887474,-2569.7562961824,-2569.04826609792,-2568.23367488119,-2567.38047010208,-2566.63089675005,-2566.26767054996,-2566.32112364169,-2566.60922149552,-2566.98365396442,-2567.30518718562,-2567.40150079801,-2567.1710576861,-2566.82587379407,-2566.44290603559,-2566.09176753223,-2565.79900612617,-2565.78805171897,-2566.06762992349,-2566.38816909959,-2566.72357774419,-2567.04548180342,-2567.18350807683,-2567.06863959598,-2566.9552866185,-2566.94967785254
-2577.91450907954,-2578.93494936195,-2579.95593402247,-2580.99111459655,-2582.07026324252,-2583.14656610259,-2584.18404955395,-2585.17396933777,-2586.09230849961,-2586.8876070701,-2587.58774918678,-2588.29691011965,-2589.02776267302,-2589.68749013721,-2590.29817320792,-2590.86580070381,-2591.37361782684,-2591.90544645855,-2592.36303654454,-2592.57411624073,-2592.58710371106,-2592.37392672971,-2591.88848983706,-2591.33871252404,-2590.97202564472,-2590.7440908458,-2590.65347420567,-2590.68358611979,-2590.86425448625,-2591.09260009187,-2591.33127202883,-2591.36110448007,-2591.03953694185,-2590.62180637466,-2590.22435556454,-2589.82319320596,-2589.60176791878,-2589.56664255289,-2589.48554482335,-2589.45628855578,-2589.49052540982,-2589.53461496742,-2589.72124594304,-2590.00119078539,-2590.21640087269,-2590.42394308171,-2590.66631367179,-2590.92743997216,-2591.19340443444,-2591.42541859475,-2591.56618536702,-2591.69702154103,-2591.92932530028,-2592.2683086028,-2592.72521883934,-2593.30472555796,-2593.92892433435,-2594.44589758037,-2594.84282175436,-2595.05127550182,-2595.08532239542,-2594.70306985849,-2594.02087240772,-2593.30570193839,-2592.57797449082,-2591.78017722047,-2591.21014989465,-2590.82985565248,-2590.4950334519,-2590.31926838484,-2590.29820436042,-2590.37003677599,-2590.56432542147,-2590.77934841224,-2591.05628740615,-2591.47391027436,-2591.99061337261,-2592.53842240598,-2593.09407013331,-2593.49339007339,-2593.64786475269,-2593.62285060052,-2593.41728790358,-2593.09942990095,-2592.76230325561,-2592.48760626214,-2592.27372453562,-2592.14967207229,-2592.06617809172,-2591.9757995344,-2591.88414266236,-2591.65319722006,-2591.2794081353,-2590.84100730703,-2590.3511787615,-2589.82637138416,-2589.47969980098,-2589.3777017011,-2589.3029754491,-2589.15060785059,-2589.02289088607,-2588.89928512268,-2588.58530535962,-2588.19113076496,-2587.88543040433,-2587.56835915679,-2587.24020104082,-2586.9961453912,-2586.80170961325,-2586.60617663678,-2586.43788982529,-2586.23346925084,-2585.98426972822,-2585.78349660991,-2585.64636636379,-2585.46921821776,-2585.22982953539,-2584.97794716656,-2584.68821097299,-2584.27086058293,-2583.78461530295,-2583.34297746402,-2582.90991509527,-2582.37016670237,-2581.79350582069,-2581.23260683233,-2580.61384224636,-2579.95023112696,-2579.26343354387,-2578.4270530607,-2577.48220623136,-2576.49900100617,-2575.66955197429,-2575.17998438019,-2574.96694534506,-2574.89674820781,-2574.83005787991,-2574.56505164539,-2574.03513170754,-2573.43371806936,-2572.87247885167,-2572.35417685877,-2571.75230416643,-2571.04427408195,-2570.22968286522,-2569.37647808612,-2568.62690473408,-2568.26367853399,-2568.31713162572,-2568.60522947955,-2568.97966194845,-2569.30119516965,-2569.39750878204,-2569.16706567013,-2568.8218817781,-2568.43891401962,-2568.08777551626,-2567.7950141102,-2567.784059703,-2568.06363790752,-2568.38417708363,-2568.71958572822,-2569.04148978746,-2569.17951606086,-2569.06464758002,-2568.95129460253,-2568.94568583657
-2579.91051706357,-2580.93095734598,-2581.95194200651,-2582.98712258059,-2584.06627122655,-2585.14257408663,-2586.18005753799,-2587.1699773218,-2588.08831648364,-2588.88361505413,-2589.58375717081,-2590.29291810369,-2591.02377065706,-2591.68349812125,-2592.29418119195,-2592.86180868784,-2593.36962581087,-2593.90145444258,-2594.35904452857,-2594.57012422476,-2594.58311169509,-2594.36993471375,-2593.88449782109,-2593.33472050807,-2592.96803362876,-2592.74009882983,-2592.6494821897,-2592.67959410382,-2592.86026247028,-2593.0886080759,-2593.32728001286,-2593.3571124641,-2593.03554492588,-2592.61781435869,-2592.22036354857,-2591.81920118999,-2591.59777590281,-2591.56265053693,-2591.48155280738,-2591.45229653981,-2591.48653339385,-2591.53062295145,-2591.71725392707,-2591.99719876942,-2592.21240885673,-2592.41995106574,-2592.66232165583,-2592.92344795619,-2593.18941241847,-2593.42142657878,-2593.56219335105,-2593.69302952506,-2593.92533328431,-2594.26431658683,-2594.72122682338,-2595.30073354199,-2595.92493231838,-2596.4419055644,-2596.8388297384,-2597.04728348585,-2597.08133037945,-2596.69907784252,-2596.01688039175,-2595.30170992242,-2594.57398247485,-2593.7761852045,-2593.20615787869,-2592.82586363651,-2592.49104143593,-2592.31527636887,-2592.29421234445,-2592.36604476002,-2592.5603334055,-2592.77535639627,-2593.05229539019,-2593.46991825839,-2593.98662135664,-2594.53443039001,-2595.09007811734,-2595.48939805742,-2595.64387273672,-2595.61885858456,-2595.41329588761,-2595.09543788498,-2594.75831123965,-2594.48361424618,-2594.26973251965,-2594.14568005633,-2594.06218607575,-2593.97180751844,-2593.8801506464,-2593.64920520409,-2593.27541611933,-2592.83701529107,-2592.34718674554,-2591.82237936819,-2591.47570778501,-2591.37370968513,-2591.29898343313,-2591.14661583462,-2591.0188988701,-2590.89529310672,-2590.58131334365,-2590.18713874899,-2589.88143838836,-2589.56436714082,-2589.23620902485,-2588.99215337523,-2588.79771759729,-2588.60218462082,-2588.43389780932,-2588.22947723488,-2587.98027771225,-2587.77950459394,-2587.64237434782,-2587.46522620179,-2587.22583751942,-2586.9739551506,-2586.68421895702,-2586.26686856696,-2585.78062328699,-2585.33898544806,-2584.9059230793,-2584.3661746864,-2583.78951380472,-2583.22861481636,-2582.60985023039,-2581.94623911099,-2581.2594415279,-2580.42306104473,-2579.47821421539,-2578.4950089902,-2577.66555995833,-2577.17599236423,-2576.9629533291,-2576.89275619184,-2576.82606586395,-2576.56105962942,-2576.03113969157,-2575.42972605339,-2574.8684868357,-2574.3501848428,-2573.74831215046,-2573.04028206599,-2572.22569084925,-2571.37248607015,-2570.62291271812,-2570.25968651803,-2570.31313960975,-2570.60123746359,-2570.97566993248,-2571.29720315369,-2571.39351676607,-2571.16307365416,-2570.81788976214,-2570.43492200366,-2570.0837835003,-2569.79102209423,-2569.78006768703,-2570.05964589156,-2570.38018506766,-2570.71559371225,-2571.03749777149,-2571.1755240449,-2571.06065556405,-2570.94730258656,-2570.94169382061
-2581.9065250476,-2582.92696533001,-2583.94794999054,-2584.98313056462,-2586.06227921058,-2587.13858207066,-2588.17606552202,-2589.16598530583,-2590.08432446767,-2590.87962303816,-2591.57976515485,-2592.28892608772,-2593.01977864109,-2593.67950610528,-2594.29018917598,-2594.85781667188,-2595.36563379491,-2595.89746242661,-2596.3550525126,-2596.5661322088,-2596.57911967912,-2596.36594269778,-2595.88050580512,-2595.3307284921,-2594.96404161279,-2594.73610681386,-2594.64549017373,-2594.67560208786,-2594.85627045432,-2595.08461605993,-2595.32328799689,-2595.35312044813,-2595.03155290991,-2594.61382234272,-2594.2163715326,-2593.81520917403,-2593.59378388684,-2593.55865852096,-2593.47756079141,-2593.44830452384,-2593.48254137788,-2593.52663093548,-2593.7132619111,-2593.99320675346,-2594.20841684076,-2594.41595904977,-2594.65832963986,-2594.91945594022,-2595.1854204025,-2595.41743456282,-2595.55820133508,-2595.68903750909,-2595.92134126834,-2596.26032457086,-2596.71723480741,-2597.29674152603,-2597.92094030241,-2598.43791354843,-2598.83483772243,-2599.04329146989,-2599.07733836349,-2598.69508582655,-2598.01288837578,-2597.29771790645,-2596.56999045888,-2595.77219318853,-2595.20216586272,-2594.82187162055,-2594.48704941997,-2594.31128435291,-2594.29022032848,-2594.36205274405,-2594.55634138954,-2594.77136438031,-2595.04830337422,-2595.46592624243,-2595.98262934067,-2596.53043837404,-2597.08608610137,-2597.48540604145,-2597.63988072075,-2597.61486656859,-2597.40930387164,-2597.09144586902,-2596.75431922368,-2596.47962223021,-2596.26574050368,-2596.14168804036,-2596.05819405978,-2595.96781550247,-2595.87615863043,-2595.64521318813,-2595.27142410336,-2594.8330232751,-2594.34319472957,-2593.81838735222,-2593.47171576905,-2593.36971766916,-2593.29499141716,-2593.14262381866,-2593.01490685413,-2592.89130109075,-2592.57732132768,-2592.18314673302,-2591.87744637239,-2591.56037512486,-2591.23221700888,-2590.98816135926,-2590.79372558132,-2590.59819260485,-2590.42990579335,-2590.22548521891,-2589.97628569629,-2589.77551257797,-2589.63838233185,-2589.46123418583,-2589.22184550346,-2588.96996313463,-2588.68022694105,-2588.26287655099,-2587.77663127102,-2587.33499343209,-2586.90193106333,-2586.36218267043,-2585.78552178875,-2585.22462280039,-2584.60585821442,-2583.94224709502,-2583.25544951193,-2582.41906902876,-2581.47422219942,-2580.49101697424,-2579.66156794236,-2579.17200034826,-2578.95896131313,-2578.88876417587,-2578.82207384798,-2578.55706761345,-2578.0271476756,-2577.42573403742,-2576.86449481973,-2576.34619282684,-2575.74432013449,-2575.03629005002,-2574.22169883328,-2573.36849405418,-2572.61892070215,-2572.25569450206,-2572.30914759378,-2572.59724544762,-2572.97167791651,-2573.29321113772,-2573.3895247501,-2573.15908163819,-2572.81389774617,-2572.43092998769,-2572.07979148433,-2571.78703007826,-2571.77607567106,-2572.05565387559,-2572.37619305169,-2572.71160169628,-2573.03350575552,-2573.17153202893,-2573.05666354808,-2572.94331057059,-2572.93770180464
-2583.90253303163,-2584.92297331404,-2585.94395797457,-2586.97913854865,-2588.05828719461,-2589.13459005469,-2590.17207350605,-2591.16199328987,-2592.0803324517,-2592.87563102219,-2593.57577313888,-2594.28493407175,-2595.01578662512,-2595.67551408931,-2596.28619716001,-2596.85382465591,-2597.36164177894,-2597.89347041064,-2598.35106049663,-2598.56214019283,-2598.57512766315,-2598.36195068181,-2597.87651378915,-2597.32673647614,-2596.96004959682,-2596.73211479789,-2596.64149815776,-2596.67161007189,-2596.85227843835,-2597.08062404396,-2597.31929598092,-2597.34912843217,-2597.02756089395,-2596.60983032675,-2596.21237951664,-2595.81121715806,-2595.58979187087,-2595.55466650499,-2595.47356877544,-2595.44431250788,-2595.47854936192,-2595.52263891952,-2595.70926989513,-2595.98921473749,-2596.20442482479,-2596.4119670338,-2596.65433762389,-2596.91546392425,-2597.18142838653,-2597.41344254685,-2597.55420931911,-2597.68504549313,-2597.91734925238,-2598.25633255489,-2598.71324279144,-2599.29274951006,-2599.91694828644,-2600.43392153246,-2600.83084570646,-2601.03929945392,-2601.07334634752,-2600.69109381058,-2600.00889635981,-2599.29372589048,-2598.56599844291,-2597.76820117256,-2597.19817384675,-2596.81787960458,-2596.483057404,-2596.30729233694,-2596.28622831251,-2596.35806072808,-2596.55234937357,-2596.76737236434,-2597.04431135825,-2597.46193422646,-2597.9786373247,-2598.52644635807,-2599.0820940854,-2599.48141402548,-2599.63588870478,-2599.61087455262,-2599.40531185567,-2599.08745385305,-2598.75032720771,-2598.47563021424,-2598.26174848771,-2598.13769602439,-2598.05420204381,-2597.9638234865,-2597.87216661446,-2597.64122117216,-2597.26743208739,-2596.82903125913,-2596.3392027136,-2595.81439533625,-2595.46772375308,-2595.36572565319,-2595.29099940119,-2595.13863180269,-2595.01091483816,-2594.88730907478,-2594.57332931171,-2594.17915471706,-2593.87345435642,-2593.55638310889,-2593.22822499292,-2592.9841693433,-2592.78973356535,-2592.59420058888,-2592.42591377738,-2592.22149320294,-2591.97229368032,-2591.77152056201,-2591.63439031588,-2591.45724216986,-2591.21785348749,-2590.96597111866,-2590.67623492509,-2590.25888453503,-2589.77263925505,-2589.33100141612,-2588.89793904736,-2588.35819065447,-2587.78152977278,-2587.22063078443,-2586.60186619845,-2585.93825507906,-2585.25145749596,-2584.41507701279,-2583.47023018345,-2582.48702495827,-2581.65757592639,-2581.16800833229,-2580.95496929716,-2580.88477215991,-2580.81808183201,-2580.55307559749,-2580.02315565964,-2579.42174202145,-2578.86050280376,-2578.34220081087,-2577.74032811852,-2577.03229803405,-2576.21770681732,-2575.36450203821,-2574.61492868618,-2574.25170248609,-2574.30515557782,-2574.59325343165,-2574.96768590055,-2575.28921912175,-2575.38553273413,-2575.15508962222,-2574.8099057302,-2574.42693797172,-2574.07579946836,-2573.7830380623,-2573.7720836551,-2574.05166185962,-2574.37220103572,-2574.70760968032,-2575.02951373955,-2575.16754001296,-2575.05267153211,-2574.93931855463,-2574.93370978867
-2585.89854101567,-2586.91898129808,-2587.9399659586,-2588.97514653268,-2590.05429517865,-2591.13059803872,-2592.16808149008,-2593.1580012739,-2594.07634043573,-2594.87163900622,-2595.57178112291,-2596.28094205578,-2597.01179460915,-2597.67152207334,-2598.28220514404,-2598.84983263994,-2599.35764976297,-2599.88947839467,-2600.34706848067,-2600.55814817686,-2600.57113564718,-2600.35795866584,-2599.87252177319,-2599.32274446017,-2598.95605758085,-2598.72812278192,-2598.63750614179,-2598.66761805592,-2598.84828642238,-2599.076632028,-2599.31530396495,-2599.3451364162,-2599.02356887798,-2598.60583831078,-2598.20838750067,-2597.80722514209,-2597.5857998549,-2597.55067448902,-2597.46957675947,-2597.44032049191,-2597.47455734595,-2597.51864690355,-2597.70527787917,-2597.98522272152,-2598.20043280882,-2598.40797501784,-2598.65034560792,-2598.91147190828,-2599.17743637056,-2599.40945053088,-2599.55021730314,-2599.68105347716,-2599.91335723641,-2600.25234053893,-2600.70925077547,-2601.28875749409,-2601.91295627047,-2602.4299295165,-2602.82685369049,-2603.03530743795,-2603.06935433155,-2602.68710179462,-2602.00490434385,-2601.28973387452,-2600.56200642694,-2599.7642091566,-2599.19418183078,-2598.81388758861,-2598.47906538803,-2598.30330032097,-2598.28223629655,-2598.35406871211,-2598.5483573576,-2598.76338034837,-2599.04031934228,-2599.45794221049,-2599.97464530874,-2600.52245434211,-2601.07810206943,-2601.47742200951,-2601.63189668881,-2601.60688253665,-2601.40131983971,-2601.08346183708,-2600.74633519174,-2600.47163819827,-2600.25775647175,-2600.13370400842,-2600.05021002785,-2599.95983147053,-2599.86817459849,-2599.63722915619,-2599.26344007142,-2598.82503924316,-2598.33521069763,-2597.81040332028,-2597.46373173711,-2597.36173363723,-2597.28700738523,-2597.13463978672,-2597.00692282219,-2596.88331705881,-2596.56933729575,-2596.17516270109,-2595.86946234045,-2595.55239109292,-2595.22423297695,-2594.98017732733,-2594.78574154938,-2594.59020857291,-2594.42192176141,-2594.21750118697,-2593.96830166435,-2593.76752854604,-2593.63039829991,-2593.45325015389,-2593.21386147152,-2592.96197910269,-2592.67224290912,-2592.25489251906,-2591.76864723908,-2591.32700940015,-2590.89394703139,-2590.3541986385,-2589.77753775682,-2589.21663876846,-2588.59787418249,-2587.93426306309,-2587.24746547999,-2586.41108499683,-2585.46623816748,-2584.4830329423,-2583.65358391042,-2583.16401631632,-2582.95097728119,-2582.88078014394,-2582.81408981604,-2582.54908358152,-2582.01916364367,-2581.41775000548,-2580.85651078779,-2580.3382087949,-2579.73633610256,-2579.02830601808,-2578.21371480135,-2577.36051002224,-2576.61093667021,-2576.24771047012,-2576.30116356185,-2576.58926141568,-2576.96369388458,-2577.28522710578,-2577.38154071817,-2577.15109760626,-2576.80591371423,-2576.42294595575,-2576.07180745239,-2575.77904604633,-2575.76809163913,-2576.04766984365,-2576.36820901975,-2576.70361766435,-2577.02552172358,-2577.16354799699,-2577.04867951614,-2576.93532653866,-2576.9297177727
-2587.8945489997,-2588.91498928211,-2589.93597394263,-2590.97115451671,-2592.05030316268,-2593.12660602275,-2594.16408947411,-2595.15400925793,-2596.07234841977,-2596.86764699026,-2597.56778910694,-2598.27695003981,-2599.00780259318,-2599.66753005737,-2600.27821312808,-2600.84584062397,-2601.353657747,-2601.88548637871,-2602.3430764647,-2602.55415616089,-2602.56714363122,-2602.35396664987,-2601.86852975722,-2601.3187524442,-2600.95206556488,-2600.72413076596,-2600.63351412583,-2600.66362603995,-2600.84429440641,-2601.07264001203,-2601.31131194899,-2601.34114440023,-2601.01957686201,-2600.60184629482,-2600.2043954847,-2599.80323312612,-2599.58180783894,-2599.54668247305,-2599.46558474351,-2599.43632847594,-2599.47056532998,-2599.51465488758,-2599.7012858632,-2599.98123070555,-2600.19644079285,-2600.40398300187,-2600.64635359195,-2600.90747989232,-2601.17344435459,-2601.40545851491,-2601.54622528718,-2601.67706146119,-2601.90936522044,-2602.24834852296,-2602.7052587595,-2603.28476547812,-2603.90896425451,-2604.42593750053,-2604.82286167452,-2605.03131542198,-2605.06536231558,-2604.68310977865,-2604.00091232788,-2603.28574185855,-2602.55801441098,-2601.76021714063,-2601.19018981481,-2600.80989557264,-2600.47507337206,-2600.299308305,-2600.27824428058,-2600.35007669615,-2600.54436534163,-2600.7593883324,-2601.03632732631,-2601.45395019452,-2601.97065329277,-2602.51846232614,-2603.07411005347,-2603.47342999355,-2603.62790467285,-2603.60289052068,-2603.39732782374,-2603.07946982111,-2602.74234317577,-2602.4676461823,-2602.25376445578,-2602.12971199245,-2602.04621801188,-2601.95583945456,-2601.86418258252,-2601.63323714022,-2601.25944805546,-2600.82104722719,-2600.33121868166,-2599.80641130432,-2599.45973972114,-2599.35774162126,-2599.28301536926,-2599.13064777075,-2599.00293080623,-2598.87932504284,-2598.56534527978,-2598.17117068512,-2597.86547032449,-2597.54839907695,-2597.22024096098,-2596.97618531136,-2596.78174953341,-2596.58621655694,-2596.41792974545,-2596.213509171,-2595.96430964838,-2595.76353653007,-2595.62640628395,-2595.44925813792,-2595.20986945555,-2594.95798708672,-2594.66825089315,-2594.25090050309,-2593.76465522311,-2593.32301738418,-2592.88995501542,-2592.35020662253,-2591.77354574085,-2591.21264675249,-2590.59388216652,-2589.93027104712,-2589.24347346402,-2588.40709298086,-2587.46224615152,-2586.47904092633,-2585.64959189445,-2585.16002430035,-2584.94698526522,-2584.87678812797,-2584.81009780007,-2584.54509156555,-2584.0151716277,-2583.41375798952,-2582.85251877183,-2582.33421677893,-2581.73234408659,-2581.02431400211,-2580.20972278538,-2579.35651800628,-2578.60694465424,-2578.24371845415,-2578.29717154588,-2578.58526939971,-2578.95970186861,-2579.28123508981,-2579.3775487022,-2579.14710559029,-2578.80192169826,-2578.41895393978,-2578.06781543642,-2577.77505403036,-2577.76409962316,-2578.04367782768,-2578.36421700379,-2578.69962564838,-2579.02152970761,-2579.15955598102,-2579.04468750018,-2578.93133452269,-2578.92572575673
-2589.89055698373,-2590.91099726614,-2591.93198192667,-2592.96716250074,-2594.04631114671,-2595.12261400679,-2596.16009745815,-2597.15001724196,-2598.0683564038,-2598.86365497429,-2599.56379709097,-2600.27295802385,-2601.00381057721,-2601.6635380414,-2602.27422111211,-2602.841848608,-2603.34966573103,-2603.88149436274,-2604.33908444873,-2604.55016414492,-2604.56315161525,-2604.34997463391,-2603.86453774125,-2603.31476042823,-2602.94807354892,-2602.72013874999,-2602.62952210986,-2602.65963402398,-2602.84030239044,-2603.06864799606,-2603.30731993302,-2603.33715238426,-2603.01558484604,-2602.59785427885,-2602.20040346873,-2601.79924111015,-2601.57781582297,-2601.54269045708,-2601.46159272754,-2601.43233645997,-2601.46657331401,-2601.51066287161,-2601.69729384723,-2601.97723868958,-2602.19244877689,-2602.3999909859,-2602.64236157598,-2602.90348787635,-2603.16945233863,-2603.40146649894,-2603.54223327121,-2603.67306944522,-2603.90537320447,-2604.24435650699,-2604.70126674354,-2605.28077346215,-2605.90497223854,-2606.42194548456,-2606.81886965856,-2607.02732340601,-2607.06137029961,-2606.67911776268,-2605.99692031191,-2605.28174984258,-2604.55402239501,-2603.75622512466,-2603.18619779885,-2602.80590355667,-2602.47108135609,-2602.29531628903,-2602.27425226461,-2602.34608468018,-2602.54037332566,-2602.75539631643,-2603.03233531035,-2603.44995817855,-2603.9666612768,-2604.51447031017,-2605.0701180375,-2605.46943797758,-2605.62391265688,-2605.59889850471,-2605.39333580777,-2605.07547780514,-2604.73835115981,-2604.46365416634,-2604.24977243981,-2604.12571997648,-2604.04222599591,-2603.95184743859,-2603.86019056656,-2603.62924512425,-2603.25545603949,-2602.81705521123,-2602.3272266657,-2601.80241928835,-2601.45574770517,-2601.35374960529,-2601.27902335329,-2601.12665575478,-2600.99893879026,-2600.87533302688,-2600.56135326381,-2600.16717866915,-2599.86147830852,-2599.54440706098,-2599.21624894501,-2598.97219329539,-2598.77775751745,-2598.58222454097,-2598.41393772948,-2598.20951715504,-2597.96031763241,-2597.7595445141,-2597.62241426798,-2597.44526612195,-2597.20587743958,-2596.95399507076,-2596.66425887718,-2596.24690848712,-2595.76066320715,-2595.31902536822,-2594.88596299946,-2594.34621460656,-2593.76955372488,-2593.20865473652,-2592.58989015055,-2591.92627903115,-2591.23948144806,-2590.40310096489,-2589.45825413555,-2588.47504891036,-2587.64559987849,-2587.15603228439,-2586.94299324925,-2586.872796112,-2586.8061057841,-2586.54109954958,-2586.01117961173,-2585.40976597355,-2584.84852675586,-2584.33022476296,-2583.72835207062,-2583.02032198615,-2582.20573076941,-2581.35252599031,-2580.60295263828,-2580.23972643819,-2580.29317952991,-2580.58127738375,-2580.95570985264,-2581.27724307385,-2581.37355668623,-2581.14311357432,-2580.7979296823,-2580.41496192382,-2580.06382342046,-2579.77106201439,-2579.76010760719,-2580.03968581172,-2580.36022498782,-2580.69563363241,-2581.01753769165,-2581.15556396506,-2581.04069548421,-2580.92734250672,-2580.92173374077
-2591.88656496776,-2592.90700525017,-2593.9279899107,-2594.96317048478,-2596.04231913074,-2597.11862199082,-2598.15610544218,-2599.14602522599,-2600.06436438783,-2600.85966295832,-2601.55980507501,-2602.26896600788,-2602.99981856125,-2603.65954602544,-2604.27022909614,-2604.83785659203,-2605.34567371506,-2605.87750234677,-2606.33509243276,-2606.54617212896,-2606.55915959928,-2606.34598261794,-2605.86054572528,-2605.31076841226,-2604.94408153295,-2604.71614673402,-2604.62553009389,-2604.65564200802,-2604.83631037448,-2605.06465598009,-2605.30332791705,-2605.33316036829,-2605.01159283007,-2604.59386226288,-2604.19641145276,-2603.79524909419,-2603.573823807,-2603.53869844112,-2603.45760071157,-2603.428344444,-2603.46258129804,-2603.50667085564,-2603.69330183126,-2603.97324667362,-2604.18845676092,-2604.39599896993,-2604.63836956002,-2604.89949586038,-2605.16546032266,-2605.39747448298,-2605.53824125524,-2605.66907742925,-2605.9013811885,-2606.24036449102,-2606.69727472757,-2607.27678144619,-2607.90098022257,-2608.41795346859,-2608.81487764259,-2609.02333139005,-2609.05737828364,-2608.67512574671,-2607.99292829594,-2607.27775782661,-2606.55003037904,-2605.75223310869,-2605.18220578288,-2604.80191154071,-2604.46708934013,-2604.29132427307,-2604.27026024864,-2604.34209266421,-2604.5363813097,-2604.75140430047,-2605.02834329438,-2605.44596616259,-2605.96266926083,-2606.5104782942,-2607.06612602153,-2607.46544596161,-2607.61992064091,-2607.59490648875,-2607.3893437918,-2607.07148578918,-2606.73435914384,-2606.45966215037,-2606.24578042384,-2606.12172796052,-2606.03823397994,-2605.94785542263,-2605.85619855059,-2605.62525310829,-2605.25146402352,-2604.81306319526,-2604.32323464973,-2603.79842727238,-2603.45175568921,-2603.34975758932,-2603.27503133732,-2603.12266373882,-2602.99494677429,-2602.87134101091,-2602.55736124784,-2602.16318665318,-2601.85748629255,-2601.54041504502,-2601.21225692904,-2600.96820127942,-2600.77376550148,-2600.57823252501,-2600.40994571351,-2600.20552513907,-2599.95632561644,-2599.75555249813,-2599.61842225201,-2599.44127410599,-2599.20188542362,-2598.95000305479,-2598.66026686121,-2598.24291647115,-2597.75667119118,-2597.31503335225,-2596.88197098349,-2596.34222259059,-2595.76556170891,-2595.20466272055,-2594.58589813458,-2593.92228701518,-2593.23548943209,-2592.39910894892,-2591.45426211958,-2590.47105689439,-2589.64160786252,-2589.15204026842,-2588.93900123329,-2588.86880409603,-2588.80211376814,-2588.53710753361,-2588.00718759576,-2587.40577395758,-2586.84453473989,-2586.326232747,-2585.72436005465,-2585.01632997018,-2584.20173875344,-2583.34853397434,-2582.59896062231,-2582.23573442222,-2582.28918751394,-2582.57728536778,-2582.95171783667,-2583.27325105788,-2583.36956467026,-2583.13912155835,-2582.79393766633,-2582.41096990785,-2582.05983140449,-2581.76706999842,-2581.75611559122,-2582.03569379575,-2582.35623297185,-2582.69164161644,-2583.01354567568,-2583.15157194909,-2583.03670346824,-2582.92335049075,-2582.9177417248
-2593.88257295179,-2594.9030132342,-2595.92399789473,-2596.95917846881,-2598.03832711477,-2599.11462997485,-2600.15211342621,-2601.14203321003,-2602.06037237186,-2602.85567094235,-2603.55581305904,-2604.26497399191,-2604.99582654528,-2605.65555400947,-2606.26623708017,-2606.83386457607,-2607.3416816991,-2607.8735103308,-2608.33110041679,-2608.54218011299,-2608.55516758331,-2608.34199060197,-2607.85655370931,-2607.3067763963,-2606.94008951698,-2606.71215471805,-2606.62153807792,-2606.65164999205,-2606.83231835851,-2607.06066396412,-2607.29933590108,-2607.32916835233,-2607.00760081411,-2606.58987024691,-2606.1924194368,-2605.79125707822,-2605.56983179103,-2605.53470642515,-2605.4536086956,-2605.42435242804,-2605.45858928208,-2605.50267883968,-2605.68930981529,-2605.96925465765,-2606.18446474495,-2606.39200695396,-2606.63437754405,-2606.89550384441,-2607.16146830669,-2607.39348246701,-2607.53424923927,-2607.66508541329,-2607.89738917254,-2608.23637247505,-2608.6932827116,-2609.27278943022,-2609.8969882066,-2610.41396145262,-2610.81088562662,-2611.01933937408,-2611.05338626768,-2610.67113373074,-2609.98893627997,-2609.27376581064,-2608.54603836307,-2607.74824109272,-2607.17821376691,-2606.79791952474,-2606.46309732416,-2606.2873322571,-2606.26626823267,-2606.33810064824,-2606.53238929373,-2606.7474122845,-2607.02435127841,-2607.44197414662,-2607.95867724486,-2608.50648627823,-2609.06213400556,-2609.46145394564,-2609.61592862494,-2609.59091447278,-2609.38535177583,-2609.06749377321,-2608.73036712787,-2608.4556701344,-2608.24178840787,-2608.11773594455,-2608.03424196397,-2607.94386340666,-2607.85220653462,-2607.62126109232,-2607.24747200755,-2606.80907117929,-2606.31924263376,-2605.79443525641,-2605.44776367324,-2605.34576557335,-2605.27103932135,-2605.11867172285,-2604.99095475832,-2604.86734899494,-2604.55336923187,-2604.15919463722,-2603.85349427658,-2603.53642302905,-2603.20826491308,-2602.96420926346,-2602.76977348551,-2602.57424050904,-2602.40595369754,-2602.2015331231,-2601.95233360048,-2601.75156048217,-2601.61443023604,-2601.43728209002,-2601.19789340765,-2600.94601103882,-2600.65627484525,-2600.23892445519,-2599.75267917521,-2599.31104133628,-2598.87797896752,-2598.33823057463,-2597.76156969294,-2597.20067070459,-2596.58190611861,-2595.91829499922,-2595.23149741612,-2594.39511693295,-2593.45027010361,-2592.46706487843,-2591.63761584655,-2591.14804825245,-2590.93500921732,-2590.86481208007,-2590.79812175217,-2590.53311551765,-2590.0031955798,-2589.40178194161,-2588.84054272392,-2588.32224073103,-2587.72036803868,-2587.01233795421,-2586.19774673748,-2585.34454195837,-2584.59496860634,-2584.23174240625,-2584.28519549798,-2584.57329335181,-2584.94772582071,-2585.26925904191,-2585.36557265429,-2585.13512954238,-2584.78994565036,-2584.40697789188,-2584.05583938852,-2583.76307798246,-2583.75212357526,-2584.03170177978,-2584.35224095588,-2584.68764960048,-2585.00955365971,-2585.14757993312,-2585.03271145227,-2584.91935847479,-2584.91374970883
-2595.87858093583,-2596.89902121824,-2597.92000587876,-2598.95518645284,-2600.03433509881,-2601.11063795888,-2602.14812141024,-2603.13804119406,-2604.05638035589,-2604.85167892638,-2605.55182104307,-2606.26098197594,-2606.99183452931,-2607.6515619935,-2608.2622450642,-2608.8298725601,-2609.33768968313,-2609.86951831483,-2610.32710840083,-2610.53818809702,-2610.55117556734,-2610.337998586,-2609.85256169335,-2609.30278438033,-2608.93609750101,-2608.70816270208,-2608.61754606195,-2608.64765797608,-2608.82832634254,-2609.05667194816,-2609.29534388511,-2609.32517633636,-2609.00360879814,-2608.58587823094,-2608.18842742083,-2607.78726506225,-2607.56583977506,-2607.53071440918,-2607.44961667963,-2607.42036041207,-2607.45459726611,-2607.49868682371,-2607.68531779932,-2607.96526264168,-2608.18047272898,-2608.388014938,-2608.63038552808,-2608.89151182844,-2609.15747629072,-2609.38949045104,-2609.5302572233,-2609.66109339732,-2609.89339715657,-2610.23238045908,-2610.68929069563,-2611.26879741425,-2611.89299619063,-2612.40996943666,-2612.80689361065,-2613.01534735811,-2613.04939425171,-2612.66714171477,-2611.98494426401,-2611.26977379468,-2610.5420463471,-2609.74424907676,-2609.17422175094,-2608.79392750877,-2608.45910530819,-2608.28334024113,-2608.26227621671,-2608.33410863227,-2608.52839727776,-2608.74342026853,-2609.02035926244,-2609.43798213065,-2609.9546852289,-2610.50249426227,-2611.05814198959,-2611.45746192967,-2611.61193660897,-2611.58692245681,-2611.38135975987,-2611.06350175724,-2610.7263751119,-2610.45167811843,-2610.23779639191,-2610.11374392858,-2610.030249948,-2609.93987139069,-2609.84821451865,-2609.61726907635,-2609.24347999158,-2608.80507916332,-2608.31525061779,-2607.79044324044,-2607.44377165727,-2607.34177355738,-2607.26704730538,-2607.11467970688,-2606.98696274235,-2606.86335697897,-2606.54937721591,-2606.15520262125,-2605.84950226061,-2605.53243101308,-2605.20427289711,-2604.96021724749,-2604.76578146954,-2604.57024849307,-2604.40196168157,-2604.19754110713,-2603.94834158451,-2603.7475684662,-2603.61043822007,-2603.43329007405,-2603.19390139168,-2602.94201902285,-2602.65228282928,-2602.23493243922,-2601.74868715924,-2601.30704932031,-2600.87398695155,-2600.33423855866,-2599.75757767698,-2599.19667868862,-2598.57791410265,-2597.91430298325,-2597.22750540015,-2596.39112491699,-2595.44627808764,-2594.46307286246,-2593.63362383058,-2593.14405623648,-2592.93101720135,-2592.8608200641,-2592.7941297362,-2592.52912350168,-2591.99920356383,-2591.39778992564,-2590.83655070795,-2590.31824871506,-2589.71637602272,-2589.00834593824,-2588.19375472151,-2587.3405499424,-2586.59097659037,-2586.22775039028,-2586.28120348201,-2586.56930133584,-2586.94373380474,-2587.26526702594,-2587.36158063832,-2587.13113752642,-2586.78595363439,-2586.40298587591,-2586.05184737255,-2585.75908596649,-2585.74813155929,-2586.02770976381,-2586.34824893991,-2586.68365758451,-2587.00556164374,-2587.14358791715,-2587.0287194363,-2586.91536645882,-2586.90975769286
-2597.87458891986,-2598.89502920227,-2599.91601386279,-2600.95119443687,-2602.03034308284,-2603.10664594291,-2604.14412939427,-2605.13404917809,-2606.05238833993,-2606.84768691042,-2607.5478290271,-2608.25698995997,-2608.98784251334,-2609.64756997753,-2610.25825304824,-2610.82588054413,-2611.33369766716,-2611.86552629887,-2612.32311638486,-2612.53419608105,-2612.54718355137,-2612.33400657003,-2611.84856967738,-2611.29879236436,-2610.93210548504,-2610.70417068612,-2610.61355404598,-2610.64366596011,-2610.82433432657,-2611.05267993219,-2611.29135186915,-2611.32118432039,-2610.99961678217,-2610.58188621497,-2610.18443540486,-2609.78327304628,-2609.5618477591,-2609.52672239321,-2609.44562466367,-2609.4163683961,-2609.45060525014,-2609.49469480774,-2609.68132578336,-2609.96127062571,-2610.17648071301,-2610.38402292203,-2610.62639351211,-2610.88751981248,-2611.15348427475,-2611.38549843507,-2611.52626520734,-2611.65710138135,-2611.8894051406,-2612.22838844312,-2612.68529867966,-2613.26480539828,-2613.88900417466,-2614.40597742069,-2614.80290159468,-2615.01135534214,-2615.04540223574,-2614.66314969881,-2613.98095224804,-2613.26578177871,-2612.53805433114,-2611.74025706079,-2611.17022973497,-2610.7899354928,-2610.45511329222,-2610.27934822516,-2610.25828420074,-2610.33011661631,-2610.52440526179,-2610.73942825256,-2611.01636724647,-2611.43399011468,-2611.95069321293,-2612.4985022463,-2613.05414997363,-2613.45346991371,-2613.607944593,-2613.58293044084,-2613.3773677439,-2613.05950974127,-2612.72238309593,-2612.44768610246,-2612.23380437594,-2612.10975191261,-2612.02625793204,-2611.93587937472,-2611.84422250268,-2611.61327706038,-2611.23948797562,-2610.80108714735,-2610.31125860182,-2609.78645122448,-2609.4397796413,-2609.33778154142,-2609.26305528942,-2609.11068769091,-2608.98297072639,-2608.859364963,-2608.54538519994,-2608.15121060528,-2607.84551024465,-2607.52843899711,-2607.20028088114,-2606.95622523152,-2606.76178945357,-2606.5662564771,-2606.39796966561,-2606.19354909116,-2605.94434956854,-2605.74357645023,-2605.60644620411,-2605.42929805808,-2605.18990937571,-2604.93802700688,-2604.64829081331,-2604.23094042325,-2603.74469514327,-2603.30305730434,-2602.86999493558,-2602.33024654269,-2601.75358566101,-2601.19268667265,-2600.57392208668,-2599.91031096728,-2599.22351338418,-2598.38713290102,-2597.44228607168,-2596.45908084649,-2595.62963181461,-2595.14006422051,-2594.92702518538,-2594.85682804813,-2594.79013772023,-2594.52513148571,-2593.99521154786,-2593.39379790968,-2592.83255869199,-2592.31425669909,-2591.71238400675,-2591.00435392227,-2590.18976270554,-2589.33655792644,-2588.5869845744,-2588.22375837431,-2588.27721146604,-2588.56530931987,-2588.93974178877,-2589.26127500997,-2589.35758862236,-2589.12714551045,-2588.78196161842,-2588.39899385994,-2588.04785535658,-2587.75509395052,-2587.74413954332,-2588.02371774784,-2588.34425692395,-2588.67966556854,-2589.00156962777,-2589.13959590118,-2589.02472742033,-2588.91137444285,-2588.90576567689
-2599.87059690389,-2600.8910371863,-2601.91202184683,-2602.9472024209,-2604.02635106687,-2605.10265392695,-2606.14013737831,-2607.13005716212,-2608.04839632396,-2608.84369489445,-2609.54383701113,-2610.25299794401,-2610.98385049737,-2611.64357796156,-2612.25426103227,-2612.82188852816,-2613.32970565119,-2613.8615342829,-2614.31912436889,-2614.53020406508,-2614.54319153541,-2614.33001455407,-2613.84457766141,-2613.29480034839,-2612.92811346908,-2612.70017867015,-2612.60956203002,-2612.63967394414,-2612.8203423106,-2613.04868791622,-2613.28735985318,-2613.31719230442,-2612.9956247662,-2612.57789419901,-2612.18044338889,-2611.77928103031,-2611.55785574313,-2611.52273037724,-2611.4416326477,-2611.41237638013,-2611.44661323417,-2611.49070279177,-2611.67733376739,-2611.95727860974,-2612.17248869705,-2612.38003090606,-2612.62240149614,-2612.88352779651,-2613.14949225879,-2613.3815064191,-2613.52227319137,-2613.65310936538,-2613.88541312463,-2614.22439642715,-2614.6813066637,-2615.26081338231,-2615.8850121587,-2616.40198540472,-2616.79890957872,-2617.00736332617,-2617.04141021977,-2616.65915768284,-2615.97696023207,-2615.26178976274,-2614.53406231517,-2613.73626504482,-2613.16623771901,-2612.78594347683,-2612.45112127625,-2612.27535620919,-2612.25429218477,-2612.32612460034,-2612.52041324582,-2612.73543623659,-2613.01237523051,-2613.42999809871,-2613.94670119696,-2614.49451023033,-2615.05015795766,-2615.44947789774,-2615.60395257704,-2615.57893842487,-2615.37337572793,-2615.0555177253,-2614.71839107997,-2614.4436940865,-2614.22981235997,-2614.10575989664,-2614.02226591607,-2613.93188735875,-2613.84023048672,-2613.60928504441,-2613.23549595965,-2612.79709513139,-2612.30726658586,-2611.78245920851,-2611.43578762533,-2611.33378952545,-2611.25906327345,-2611.10669567494,-2610.97897871042,-2610.85537294704,-2610.54139318397,-2610.14721858931,-2609.84151822868,-2609.52444698114,-2609.19628886517,-2608.95223321555,-2608.7577974376,-2608.56226446113,-2608.39397764964,-2608.1895570752,-2607.94035755257,-2607.73958443426,-2607.60245418814,-2607.42530604211,-2607.18591735974,-2606.93403499092,-2606.64429879734,-2606.22694840728,-2605.74070312731,-2605.29906528838,-2604.86600291962,-2604.32625452672,-2603.74959364504,-2603.18869465668,-2602.56993007071,-2601.90631895131,-2601.21952136822,-2600.38314088505,-2599.43829405571,-2598.45508883052,-2597.62563979865,-2597.13607220455,-2596.92303316941,-2596.85283603216,-2596.78614570426,-2596.52113946974,-2595.99121953189,-2595.38980589371,-2594.82856667602,-2594.31026468312,-2593.70839199078,-2593.00036190631,-2592.18577068957,-2591.33256591047,-2590.58299255844,-2590.21976635835,-2590.27321945007,-2590.56131730391,-2590.9357497728,-2591.25728299401,-2591.35359660639,-2591.12315349448,-2590.77796960246,-2590.39500184398,-2590.04386334062,-2589.75110193455,-2589.74014752735,-2590.01972573188,-2590.34026490798,-2590.67567355257,-2590.99757761181,-2591.13560388522,-2591.02073540437,-2590.90738242688,-2590.90177366093
-2601.86660488792,-2602.88704517033,-2603.90802983086,-2604.94321040494,-2606.0223590509,-2607.09866191098,-2608.13614536234,-2609.12606514615,-2610.04440430799,-2610.83970287848,-2611.53984499517,-2612.24900592804,-2612.97985848141,-2613.6395859456,-2614.2502690163,-2614.81789651219,-2615.32571363522,-2615.85754226693,-2616.31513235292,-2616.52621204912,-2616.53919951944,-2616.3260225381,-2615.84058564544,-2615.29080833242,-2614.92412145311,-2614.69618665418,-2614.60557001405,-2614.63568192817,-2614.81635029464,-2615.04469590025,-2615.28336783721,-2615.31320028845,-2614.99163275023,-2614.57390218304,-2614.17645137292,-2613.77528901435,-2613.55386372716,-2613.51873836128,-2613.43764063173,-2613.40838436416,-2613.4426212182,-2613.4867107758,-2613.67334175142,-2613.95328659378,-2614.16849668108,-2614.37603889009,-2614.61840948018,-2614.87953578054,-2615.14550024282,-2615.37751440313,-2615.5182811754,-2615.64911734941,-2615.88142110866,-2616.22040441118,-2616.67731464773,-2617.25682136634,-2617.88102014273,-2618.39799338875,-2618.79491756275,-2619.00337131021,-2619.0374182038,-2618.65516566687,-2617.9729682161,-2617.25779774677,-2616.5300702992,-2615.73227302885,-2615.16224570304,-2614.78195146087,-2614.44712926029,-2614.27136419323,-2614.2503001688,-2614.32213258437,-2614.51642122986,-2614.73144422062,-2615.00838321454,-2615.42600608275,-2615.94270918099,-2616.49051821436,-2617.04616594169,-2617.44548588177,-2617.59996056107,-2617.57494640891,-2617.36938371196,-2617.05152570934,-2616.714399064,-2616.43970207053,-2616.225820344,-2616.10176788068,-2616.0182739001,-2615.92789534279,-2615.83623847075,-2615.60529302844,-2615.23150394368,-2614.79310311542,-2614.30327456989,-2613.77846719254,-2613.43179560937,-2613.32979750948,-2613.25507125748,-2613.10270365898,-2612.97498669445,-2612.85138093107,-2612.537401168,-2612.14322657334,-2611.83752621271,-2611.52045496517,-2611.1922968492,-2610.94824119958,-2610.75380542164,-2610.55827244517,-2610.38998563367,-2610.18556505923,-2609.9363655366,-2609.73559241829,-2609.59846217217,-2609.42131402614,-2609.18192534377,-2608.93004297495,-2608.64030678137,-2608.22295639131,-2607.73671111134,-2607.29507327241,-2606.86201090365,-2606.32226251075,-2605.74560162907,-2605.18470264071,-2604.56593805474,-2603.90232693534,-2603.21552935225,-2602.37914886908,-2601.43430203974,-2600.45109681455,-2599.62164778268,-2599.13208018858,-2598.91904115345,-2598.84884401619,-2598.7821536883,-2598.51714745377,-2597.98722751592,-2597.38581387774,-2596.82457466005,-2596.30627266715,-2595.70439997481,-2594.99636989034,-2594.1817786736,-2593.3285738945,-2592.57900054247,-2592.21577434238,-2592.2692274341,-2592.55732528794,-2592.93175775683,-2593.25329097804,-2593.34960459042,-2593.11916147851,-2592.77397758649,-2592.39100982801,-2592.03987132465,-2591.74710991858,-2591.73615551138,-2592.01573371591,-2592.33627289201,-2592.6716815366,-2592.99358559584,-2593.13161186925,-2593.0167433884,-2592.90339041091,-2592.89778164496
-2603.86261287195,-2604.88305315436,-2605.90403781489,-2606.93921838897,-2608.01836703493,-2609.09466989501,-2610.13215334637,-2611.12207313019,-2612.04041229202,-2612.83571086251,-2613.5358529792,-2614.24501391207,-2614.97586646544,-2615.63559392963,-2616.24627700033,-2616.81390449623,-2617.32172161926,-2617.85355025096,-2618.31114033695,-2618.52222003315,-2618.53520750347,-2618.32203052213,-2617.83659362947,-2617.28681631646,-2616.92012943714,-2616.69219463821,-2616.60157799808,-2616.63168991221,-2616.81235827867,-2617.04070388428,-2617.27937582124,-2617.30920827249,-2616.98764073427,-2616.56991016707,-2616.17245935696,-2615.77129699838,-2615.54987171119,-2615.51474634531,-2615.43364861576,-2615.40439234819,-2615.43862920223,-2615.48271875983,-2615.66934973545,-2615.94929457781,-2616.16450466511,-2616.37204687412,-2616.61441746421,-2616.87554376457,-2617.14150822685,-2617.37352238717,-2617.51428915943,-2617.64512533345,-2617.8774290927,-2618.21641239521,-2618.67332263176,-2619.25282935038,-2619.87702812676,-2620.39400137278,-2620.79092554678,-2620.99937929424,-2621.03342618784,-2620.6511736509,-2619.96897620013,-2619.2538057308,-2618.52607828323,-2617.72828101288,-2617.15825368707,-2616.7779594449,-2616.44313724432,-2616.26737217726,-2616.24630815283,-2616.3181405684,-2616.51242921389,-2616.72745220466,-2617.00439119857,-2617.42201406678,-2617.93871716502,-2618.48652619839,-2619.04217392572,-2619.4414938658,-2619.5959685451,-2619.57095439294,-2619.36539169599,-2619.04753369337,-2618.71040704803,-2618.43571005456,-2618.22182832803,-2618.09777586471,-2618.01428188413,-2617.92390332682,-2617.83224645478,-2617.60130101248,-2617.22751192771,-2616.78911109945,-2616.29928255392,-2615.77447517657,-2615.4278035934,-2615.32580549351,-2615.25107924151,-2615.09871164301,-2614.97099467848,-2614.8473889151,-2614.53340915203,-2614.13923455738,-2613.83353419674,-2613.51646294921,-2613.18830483324,-2612.94424918362,-2612.74981340567,-2612.5542804292,-2612.3859936177,-2612.18157304326,-2611.93237352064,-2611.73160040232,-2611.5944701562,-2611.41732201018,-2611.17793332781,-2610.92605095898,-2610.63631476541,-2610.21896437535,-2609.73271909537,-2609.29108125644,-2608.85801888768,-2608.31827049479,-2607.7416096131,-2607.18071062475,-2606.56194603877,-2605.89833491938,-2605.21153733628,-2604.37515685311,-2603.43031002377,-2602.44710479859,-2601.61765576671,-2601.12808817261,-2600.91504913748,-2600.84485200023,-2600.77816167233,-2600.5131554378,-2599.98323549996,-2599.38182186177,-2598.82058264408,-2598.30228065119,-2597.70040795884,-2596.99237787437,-2596.17778665763,-2595.32458187853,-2594.5750085265,-2594.21178232641,-2594.26523541814,-2594.55333327197,-2594.92776574087,-2595.24929896207,-2595.34561257445,-2595.11516946254,-2594.76998557052,-2594.38701781204,-2594.03587930868,-2593.74311790262,-2593.73216349542,-2594.01174169994,-2594.33228087604,-2594.66768952064,-2594.98959357987,-2595.12761985328,-2595.01275137243,-2594.89939839495,-2594.89378962899
-2605.85862085599,-2606.8790611384,-2607.90004579892,-2608.935226373,-2610.01437501897,-2611.09067787904,-2612.1281613304,-2613.11808111422,-2614.03642027605,-2614.83171884654,-2615.53186096323,-2616.2410218961,-2616.97187444947,-2617.63160191366,-2618.24228498436,-2618.80991248026,-2619.31772960329,-2619.84955823499,-2620.30714832099,-2620.51822801718,-2620.5312154875,-2620.31803850616,-2619.83260161351,-2619.28282430049,-2618.91613742117,-2618.68820262224,-2618.59758598211,-2618.62769789624,-2618.8083662627,-2619.03671186832,-2619.27538380527,-2619.30521625652,-2618.9836487183,-2618.5659181511,-2618.16846734099,-2617.76730498241,-2617.54587969522,-2617.51075432934,-2617.42965659979,-2617.40040033223,-2617.43463718627,-2617.47872674387,-2617.66535771948,-2617.94530256184,-2618.16051264914,-2618.36805485816,-2618.61042544824,-2618.8715517486,-2619.13751621088,-2619.3695303712,-2619.51029714346,-2619.64113331748,-2619.87343707673,-2620.21242037924,-2620.66933061579,-2621.24883733441,-2621.87303611079,-2622.39000935681,-2622.78693353081,-2622.99538727827,-2623.02943417187,-2622.64718163493,-2621.96498418417,-2621.24981371484,-2620.52208626726,-2619.72428899692,-2619.1542616711,-2618.77396742893,-2618.43914522835,-2618.26338016129,-2618.24231613687,-2618.31414855243,-2618.50843719792,-2618.72346018869,-2619.0003991826,-2619.41802205081,-2619.93472514906,-2620.48253418243,-2621.03818190975,-2621.43750184983,-2621.59197652913,-2621.56696237697,-2621.36139968003,-2621.0435416774,-2620.70641503206,-2620.43171803859,-2620.21783631207,-2620.09378384874,-2620.01028986816,-2619.91991131085,-2619.82825443881,-2619.59730899651,-2619.22351991174,-2618.78511908348,-2618.29529053795,-2617.7704831606,-2617.42381157743,-2617.32181347754,-2617.24708722554,-2617.09471962704,-2616.96700266251,-2616.84339689913,-2616.52941713607,-2616.13524254141,-2615.82954218077,-2615.51247093324,-2615.18431281727,-2614.94025716765,-2614.7458213897,-2614.55028841323,-2614.38200160173,-2614.17758102729,-2613.92838150467,-2613.72760838636,-2613.59047814023,-2613.41332999421,-2613.17394131184,-2612.92205894301,-2612.63232274944,-2612.21497235938,-2611.7287270794,-2611.28708924047,-2610.85402687171,-2610.31427847882,-2609.73761759714,-2609.17671860878,-2608.55795402281,-2607.89434290341,-2607.20754532031,-2606.37116483714,-2605.4263180078,-2604.44311278262,-2603.61366375074,-2603.12409615664,-2602.91105712151,-2602.84085998426,-2602.77416965636,-2602.50916342184,-2601.97924348399,-2601.3778298458,-2600.81659062811,-2600.29828863522,-2599.69641594288,-2598.9883858584,-2598.17379464167,-2597.32058986256,-2596.57101651053,-2596.20779031044,-2596.26124340217,-2596.549341256,-2596.9237737249,-2597.2453069461,-2597.34162055848,-2597.11117744658,-2596.76599355455,-2596.38302579607,-2596.03188729271,-2595.73912588665,-2595.72817147945,-2596.00774968397,-2596.32828886007,-2596.66369750467,-2596.9856015639,-2597.12362783731,-2597.00875935646,-2596.89540637898,-2596.88979761302
-2607.85462884002,-2608.87506912243,-2609.89605378295,-2610.93123435703,-2612.010383003,-2613.08668586307,-2614.12416931443,-2615.11408909825,-2616.03242826008,-2616.82772683057,-2617.52786894726,-2618.23702988013,-2618.9678824335,-2619.62760989769,-2620.2382929684,-2620.80592046429,-2621.31373758732,-2621.84556621902,-2622.30315630502,-2622.51423600121,-2622.52722347153,-2622.31404649019,-2621.82860959754,-2621.27883228452,-2620.9121454052,-2620.68421060628,-2620.59359396614,-2620.62370588027,-2620.80437424673,-2621.03271985235,-2621.27139178931,-2621.30122424055,-2620.97965670233,-2620.56192613513,-2620.16447532502,-2619.76331296644,-2619.54188767926,-2619.50676231337,-2619.42566458382,-2619.39640831626,-2619.4306451703,-2619.4747347279,-2619.66136570352,-2619.94131054587,-2620.15652063317,-2620.36406284219,-2620.60643343227,-2620.86755973263,-2621.13352419491,-2621.36553835523,-2621.50630512749,-2621.63714130151,-2621.86944506076,-2622.20842836328,-2622.66533859982,-2623.24484531844,-2623.86904409482,-2624.38601734085,-2624.78294151484,-2624.9913952623,-2625.0254421559,-2624.64318961897,-2623.9609921682,-2623.24582169887,-2622.5180942513,-2621.72029698095,-2621.15026965513,-2620.76997541296,-2620.43515321238,-2620.25938814532,-2620.2383241209,-2620.31015653647,-2620.50444518195,-2620.71946817272,-2620.99640716663,-2621.41403003484,-2621.93073313309,-2622.47854216646,-2623.03418989378,-2623.43350983387,-2623.58798451316,-2623.562970361,-2623.35740766406,-2623.03954966143,-2622.70242301609,-2622.42772602262,-2622.2138442961,-2622.08979183277,-2622.0062978522,-2621.91591929488,-2621.82426242284,-2621.59331698054,-2621.21952789578,-2620.78112706751,-2620.29129852198,-2619.76649114463,-2619.41981956146,-2619.31782146158,-2619.24309520958,-2619.09072761107,-2618.96301064654,-2618.83940488316,-2618.5254251201,-2618.13125052544,-2617.82555016481,-2617.50847891727,-2617.1803208013,-2616.93626515168,-2616.74182937373,-2616.54629639726,-2616.37800958577,-2616.17358901132,-2615.9243894887,-2615.72361637039,-2615.58648612427,-2615.40933797824,-2615.16994929587,-2614.91806692704,-2614.62833073347,-2614.21098034341,-2613.72473506343,-2613.2830972245,-2612.85003485574,-2612.31028646285,-2611.73362558117,-2611.17272659281,-2610.55396200684,-2609.89035088744,-2609.20355330434,-2608.36717282118,-2607.42232599184,-2606.43912076665,-2605.60967173477,-2605.12010414067,-2604.90706510554,-2604.83686796829,-2604.77017764039,-2604.50517140587,-2603.97525146802,-2603.37383782984,-2602.81259861214,-2602.29429661925,-2601.69242392691,-2600.98439384243,-2600.1698026257,-2599.31659784659,-2598.56702449456,-2598.20379829447,-2598.2572513862,-2598.54534924003,-2598.91978170893,-2599.24131493013,-2599.33762854252,-2599.10718543061,-2598.76200153858,-2598.3790337801,-2598.02789527674,-2597.73513387068,-2597.72417946348,-2598.003757668,-2598.32429684411,-2598.6597054887,-2598.98160954793,-2599.11963582134,-2599.00476734049,-2598.89141436301,-2598.88580559705
