-3140.40960279441,-3140.40960279441,-3140.43258487991,-3140.63476218972,-3141.01681137708,-3141.58382907589,-3142.3353803178,-3143.24808544878,-3144.16835242302,-3145.10472688625,-3146.04916687639,-3146.99427743258,-3147.95108248216,-3148.94569163989,-3149.9500728834,-3150.9198457213,-3151.85495986983,-3152.7256011006,-3153.4953804387,-3154.16471770681,-3154.80024730451,-3155.45611507215,-3156.12037778787,-3156.72655789935,-3157.29301455448,-3157.80037140928,-3158.23745136287,-3158.71856973716,-3159.21476559659,-3159.48283152486,-3159.54223617991,-3159.40329981401,-3158.99344725193,-3158.44027985546,-3158.00848807971,-3157.7272579929,-3157.55802598081,-3157.50530949074,-3157.55966383736,-3157.73196252464,-3157.95523063915,-3158.18441669484,-3158.30379539234,-3158.09698270903,-3157.65189549241,-3157.21824480414,-3156.81404621339,-3156.50262340559,-3156.4414243427,-3156.432508427,-3156.32860002479,-3156.29279048608,-3156.32206995854,-3156.39441498989,-3156.59526313188,-3156.85279380305,-3157.03863046625,-3157.21532009474,-3157.4374515927,-3157.68037850226,-3157.93019292638,-3158.1699063613,-3158.35612866688,-3158.46936308034,-3158.58727484436,-3158.80029169337,-3159.11150767233,-3159.54302351764,-3160.10200137935,-3160.69188439836,-3161.20367250368,-3161.60488166658,-3161.86950962574,-3161.97970430535,-3161.87582533862,-3161.40881998939,-3160.71338084705,-3160.01258885056,-3159.30921406496,-3158.61606667642,-3158.1204667811,-3157.76278830725,-3157.38826433558,-3157.15560436734,-3157.1219720137,-3157.18601322778,-3157.3177935768,-3157.52700772074,-3157.7101565286,-3157.97600782569,-3158.39823932172,-3158.89866319489,-3159.42268469296,-3159.93807184671,-3160.35314191412,-3160.54220636646,-3160.56987590011,-3160.42774396838,-3160.13151164032,-3159.77308485794,-3159.48829779134,-3159.25593260004,-3159.08522474254,-3159.00064621651,-3158.92029188982,-3158.83396165497,-3158.76222811812,-3158.57803725882,-3158.24043423525,-3157.82960238493,-3157.36872453214,-3156.86434380233,-3156.4454596371,-3156.24297385203,-3156.20331171821,-3156.14453643016,-3156.01091988322,-3155.90654200634,-3155.75457467219,-3155.44119063402,-3155.09845846444,-3154.81946079204,-3154.52072517836,-3154.19408948351,-3153.94283777575,-3153.76482718903,-3153.58954849677,-3153.42066095263,-3153.2503698222,-3153.04392745942,-3152.82267043137,-3152.64147489439,-3152.50761665396,-3152.35909743819,-3152.15564066241,-3151.9272743268,-3151.66818737421,-3151.32415285646,-3150.89334006929,-3150.4550554939,-3150.04671680041,-3149.61673678331,-3149.10827298151,-3148.57624568181,-3148.03624709325,-3147.43954766804,-3146.82139776825,-3146.21803032562,-3145.47102378754,-3144.57442527273,-3143.64216395678,-3142.72885427522,-3142.09709554828,-3141.84656609339,-3141.77762815709,-3141.7595634475,-3141.67910589763,-3141.32370130371,-3140.76598802844,-3140.19153907084,-3139.67009281572,-3139.20771462545,-3138.66131592843,-3138.01117517812,-3137.25779179869,-3136.4041284412,-3135.63475588572
-3142.40561077844,-3142.40561077844,-3142.42859286394,-3142.63077017375,-3143.01281936111,-3143.57983705993,-3144.33138830183,-3145.24409343281,-3146.16436040706,-3147.10073487028,-3148.04517486042,-3148.99028541662,-3149.94709046619,-3150.94169962393,-3151.94608086743,-3152.91585370533,-3153.85096785386,-3154.72160908463,-3155.49138842274,-3156.16072569084,-3156.79625528854,-3157.45212305619,-3158.1163857719,-3158.72256588338,-3159.28902253851,-3159.79637939331,-3160.2334593469,-3160.71457772119,-3161.21077358062,-3161.47883950889,-3161.53824416394,-3161.39930779804,-3160.98945523596,-3160.4362878395,-3160.00449606375,-3159.72326597693,-3159.55403396484,-3159.50131747477,-3159.55567182139,-3159.72797050867,-3159.95123862318,-3160.18042467887,-3160.29980337637,-3160.09299069306,-3159.64790347644,-3159.21425278817,-3158.81005419742,-3158.49863138963,-3158.43743232673,-3158.42851641103,-3158.32460800882,-3158.28879847011,-3158.31807794257,-3158.39042297392,-3158.59127111591,-3158.84880178709,-3159.03463845028,-3159.21132807877,-3159.43345957673,-3159.67638648629,-3159.92620091041,-3160.16591434533,-3160.35213665091,-3160.46537106437,-3160.58328282839,-3160.7962996774,-3161.10751565636,-3161.53903150167,-3162.09800936339,-3162.68789238239,-3163.19968048771,-3163.60088965062,-3163.86551760977,-3163.97571228938,-3163.87183332265,-3163.40482797342,-3162.70938883108,-3162.00859683459,-3161.305222049,-3160.61207466046,-3160.11647476513,-3159.75879629128,-3159.38427231962,-3159.15161235137,-3159.11797999774,-3159.18202121182,-3159.31380156084,-3159.52301570477,-3159.70616451263,-3159.97201580973,-3160.39424730576,-3160.89467117892,-3161.41869267699,-3161.93407983074,-3162.34914989815,-3162.53821435049,-3162.56588388414,-3162.42375195241,-3162.12751962435,-3161.76909284197,-3161.48430577538,-3161.25194058408,-3161.08123272657,-3160.99665420054,-3160.91629987385,-3160.829969639,-3160.75823610215,-3160.57404524286,-3160.23644221928,-3159.82561036896,-3159.36473251617,-3158.86035178636,-3158.44146762113,-3158.23898183607,-3158.19931970224,-3158.1405444142,-3158.00692786726,-3157.90254999037,-3157.75058265622,-3157.43719861805,-3157.09446644847,-3156.81546877608,-3156.51673316239,-3156.19009746754,-3155.93884575978,-3155.76083517307,-3155.5855564808,-3155.41666893666,-3155.24637780623,-3155.03993544345,-3154.81867841541,-3154.63748287842,-3154.50362463799,-3154.35510542222,-3154.15164864644,-3153.92328231083,-3153.66419535824,-3153.32016084049,-3152.88934805332,-3152.45106347793,-3152.04272478444,-3151.61274476735,-3151.10428096554,-3150.57225366584,-3150.03225507728,-3149.43555565208,-3148.81740575228,-3148.21403830966,-3147.46703177157,-3146.57043325677,-3145.63817194082,-3144.72486225925,-3144.09310353231,-3143.84257407742,-3143.77363614112,-3143.75557143154,-3143.67511388166,-3143.31970928774,-3142.76199601247,-3142.18754705487,-3141.66610079976,-3141.20372260948,-3140.65732391246,-3140.00718316216,-3139.25379978272,-3138.40013642523,-3137.63076386976
-3144.40161876247,-3144.40161876247,-3144.42460084798,-3144.62677815778,-3145.00882734514,-3145.57584504396,-3146.32739628586,-3147.24010141685,-3148.16036839109,-3149.09674285431,-3150.04118284445,-3150.98629340065,-3151.94309845022,-3152.93770760796,-3153.94208885147,-3154.91186168936,-3155.84697583789,-3156.71761706867,-3157.48739640677,-3158.15673367487,-3158.79226327257,-3159.44813104022,-3160.11239375593,-3160.71857386741,-3161.28503052254,-3161.79238737734,-3162.22946733093,-3162.71058570522,-3163.20678156466,-3163.47484749292,-3163.53425214797,-3163.39531578207,-3162.98546321999,-3162.43229582353,-3162.00050404778,-3161.71927396096,-3161.55004194887,-3161.49732545881,-3161.55167980542,-3161.7239784927,-3161.94724660721,-3162.1764326629,-3162.2958113604,-3162.08899867709,-3161.64391146047,-3161.2102607722,-3160.80606218145,-3160.49463937366,-3160.43344031076,-3160.42452439506,-3160.32061599286,-3160.28480645414,-3160.3140859266,-3160.38643095796,-3160.58727909994,-3160.84480977112,-3161.03064643431,-3161.2073360628,-3161.42946756077,-3161.67239447032,-3161.92220889444,-3162.16192232936,-3162.34814463495,-3162.4613790484,-3162.57929081242,-3162.79230766143,-3163.10352364039,-3163.5350394857,-3164.09401734742,-3164.68390036642,-3165.19568847175,-3165.59689763465,-3165.86152559381,-3165.97172027341,-3165.86784130668,-3165.40083595746,-3164.70539681511,-3164.00460481862,-3163.30123003303,-3162.60808264449,-3162.11248274916,-3161.75480427531,-3161.38028030365,-3161.1476203354,-3161.11398798177,-3161.17802919585,-3161.30980954487,-3161.5190236888,-3161.70217249666,-3161.96802379376,-3162.39025528979,-3162.89067916295,-3163.41470066102,-3163.93008781477,-3164.34515788218,-3164.53422233452,-3164.56189186818,-3164.41975993644,-3164.12352760838,-3163.765100826,-3163.48031375941,-3163.24794856811,-3163.0772407106,-3162.99266218457,-3162.91230785789,-3162.82597762303,-3162.75424408618,-3162.57005322689,-3162.23245020331,-3161.821618353,-3161.3607405002,-3160.85635977039,-3160.43747560516,-3160.2349898201,-3160.19532768627,-3160.13655239823,-3160.00293585129,-3159.8985579744,-3159.74659064025,-3159.43320660208,-3159.0904744325,-3158.81147676011,-3158.51274114642,-3158.18610545157,-3157.93485374382,-3157.7568431571,-3157.58156446483,-3157.41267692069,-3157.24238579026,-3157.03594342748,-3156.81468639944,-3156.63349086245,-3156.49963262202,-3156.35111340625,-3156.14765663047,-3155.91929029486,-3155.66020334228,-3155.31616882452,-3154.88535603735,-3154.44707146197,-3154.03873276847,-3153.60875275138,-3153.10028894958,-3152.56826164987,-3152.02826306131,-3151.43156363611,-3150.81341373631,-3150.21004629369,-3149.4630397556,-3148.5664412408,-3147.63417992485,-3146.72087024328,-3146.08911151634,-3145.83858206145,-3145.76964412516,-3145.75157941557,-3145.67112186569,-3145.31571727178,-3144.75800399651,-3144.1835550389,-3143.66210878379,-3143.19973059351,-3142.6533318965,-3142.00319114619,-3141.24980776675,-3140.39614440927,-3139.62677185379
-3146.39762674651,-3146.39762674651,-3146.42060883201,-3146.62278614181,-3147.00483532917,-3147.57185302799,-3148.3234042699,-3149.23610940088,-3150.15637637512,-3151.09275083835,-3152.03719082848,-3152.98230138468,-3153.93910643425,-3154.93371559199,-3155.9380968355,-3156.90786967339,-3157.84298382192,-3158.7136250527,-3159.4834043908,-3160.1527416589,-3160.78827125661,-3161.44413902425,-3162.10840173996,-3162.71458185144,-3163.28103850657,-3163.78839536138,-3164.22547531496,-3164.70659368925,-3165.20278954869,-3165.47085547695,-3165.530260132,-3165.3913237661,-3164.98147120402,-3164.42830380756,-3163.99651203181,-3163.715281945,-3163.5460499329,-3163.49333344284,-3163.54768778945,-3163.71998647673,-3163.94325459124,-3164.17244064693,-3164.29181934444,-3164.08500666113,-3163.6399194445,-3163.20626875624,-3162.80207016549,-3162.49064735769,-3162.42944829479,-3162.4205323791,-3162.31662397689,-3162.28081443817,-3162.31009391064,-3162.38243894199,-3162.58328708398,-3162.84081775515,-3163.02665441835,-3163.20334404684,-3163.4254755448,-3163.66840245435,-3163.91821687847,-3164.15793031339,-3164.34415261898,-3164.45738703243,-3164.57529879645,-3164.78831564546,-3165.09953162443,-3165.53104746974,-3166.09002533145,-3166.67990835045,-3167.19169645578,-3167.59290561868,-3167.85753357784,-3167.96772825745,-3167.86384929071,-3167.39684394149,-3166.70140479915,-3166.00061280265,-3165.29723801706,-3164.60409062852,-3164.10849073319,-3163.75081225934,-3163.37628828768,-3163.14362831943,-3163.1099959658,-3163.17403717988,-3163.3058175289,-3163.51503167283,-3163.6981804807,-3163.96403177779,-3164.38626327382,-3164.88668714699,-3165.41070864506,-3165.9260957988,-3166.34116586621,-3166.53023031856,-3166.55789985221,-3166.41576792047,-3166.11953559241,-3165.76110881004,-3165.47632174344,-3165.24395655214,-3165.07324869463,-3164.98867016861,-3164.90831584192,-3164.82198560707,-3164.75025207022,-3164.56606121092,-3164.22845818734,-3163.81762633703,-3163.35674848423,-3162.85236775443,-3162.4334835892,-3162.23099780413,-3162.1913356703,-3162.13256038226,-3161.99894383532,-3161.89456595844,-3161.74259862428,-3161.42921458611,-3161.08648241653,-3160.80748474414,-3160.50874913045,-3160.1821134356,-3159.93086172785,-3159.75285114113,-3159.57757244886,-3159.40868490473,-3159.2383937743,-3159.03195141151,-3158.81069438347,-3158.62949884648,-3158.49564060605,-3158.34712139028,-3158.14366461451,-3157.9152982789,-3157.65621132631,-3157.31217680855,-3156.88136402138,-3156.443079446,-3156.0347407525,-3155.60476073541,-3155.09629693361,-3154.5642696339,-3154.02427104535,-3153.42757162014,-3152.80942172034,-3152.20605427772,-3151.45904773964,-3150.56244922483,-3149.63018790888,-3148.71687822731,-3148.08511950037,-3147.83459004548,-3147.76565210919,-3147.7475873996,-3147.66712984972,-3147.31172525581,-3146.75401198054,-3146.17956302293,-3145.65811676782,-3145.19573857754,-3144.64933988053,-3143.99919913022,-3143.24581575078,-3142.3921523933,-3141.62277983782
-3148.39363473054,-3148.39363473054,-3148.41661681604,-3148.61879412585,-3149.0008433132,-3149.56786101202,-3150.31941225393,-3151.23211738491,-3152.15238435915,-3153.08875882238,-3154.03319881252,-3154.97830936871,-3155.93511441828,-3156.92972357602,-3157.93410481953,-3158.90387765742,-3159.83899180596,-3160.70963303673,-3161.47941237483,-3162.14874964293,-3162.78427924064,-3163.44014700828,-3164.104409724,-3164.71058983547,-3165.2770464906,-3165.78440334541,-3166.221483299,-3166.70260167329,-3167.19879753272,-3167.46686346099,-3167.52626811604,-3167.38733175014,-3166.97747918806,-3166.42431179159,-3165.99252001584,-3165.71128992903,-3165.54205791693,-3165.48934142687,-3165.54369577348,-3165.71599446076,-3165.93926257527,-3166.16844863096,-3166.28782732847,-3166.08101464516,-3165.63592742854,-3165.20227674027,-3164.79807814952,-3164.48665534172,-3164.42545627883,-3164.41654036313,-3164.31263196092,-3164.27682242221,-3164.30610189467,-3164.37844692602,-3164.57929506801,-3164.83682573918,-3165.02266240238,-3165.19935203087,-3165.42148352883,-3165.66441043838,-3165.9142248625,-3166.15393829743,-3166.34016060301,-3166.45339501647,-3166.57130678048,-3166.78432362949,-3167.09553960846,-3167.52705545377,-3168.08603331548,-3168.67591633449,-3169.18770443981,-3169.58891360271,-3169.85354156187,-3169.96373624148,-3169.85985727474,-3169.39285192552,-3168.69741278318,-3167.99662078668,-3167.29324600109,-3166.60009861255,-3166.10449871723,-3165.74682024338,-3165.37229627171,-3165.13963630347,-3165.10600394983,-3165.17004516391,-3165.30182551293,-3165.51103965686,-3165.69418846473,-3165.96003976182,-3166.38227125785,-3166.88269513102,-3167.40671662909,-3167.92210378284,-3168.33717385025,-3168.52623830259,-3168.55390783624,-3168.41177590451,-3168.11554357645,-3167.75711679407,-3167.47232972747,-3167.23996453617,-3167.06925667866,-3166.98467815264,-3166.90432382595,-3166.8179935911,-3166.74626005425,-3166.56206919495,-3166.22446617137,-3165.81363432106,-3165.35275646826,-3164.84837573846,-3164.42949157323,-3164.22700578816,-3164.18734365434,-3164.12856836629,-3163.99495181935,-3163.89057394247,-3163.73860660831,-3163.42522257014,-3163.08249040057,-3162.80349272817,-3162.50475711448,-3162.17812141963,-3161.92686971188,-3161.74885912516,-3161.5735804329,-3161.40469288876,-3161.23440175833,-3161.02795939554,-3160.8067023675,-3160.62550683052,-3160.49164859009,-3160.34312937431,-3160.13967259854,-3159.91130626293,-3159.65221931034,-3159.30818479259,-3158.87737200541,-3158.43908743003,-3158.03074873653,-3157.60076871944,-3157.09230491764,-3156.56027761793,-3156.02027902938,-3155.42357960417,-3154.80542970437,-3154.20206226175,-3153.45505572367,-3152.55845720886,-3151.62619589291,-3150.71288621134,-3150.08112748441,-3149.83059802952,-3149.76166009322,-3149.74359538363,-3149.66313783375,-3149.30773323984,-3148.75001996457,-3148.17557100697,-3147.65412475185,-3147.19174656157,-3146.64534786456,-3145.99520711425,-3145.24182373481,-3144.38816037733,-3143.61878782185
-3150.38964271457,-3150.38964271457,-3150.41262480007,-3150.61480210988,-3150.99685129724,-3151.56386899605,-3152.31542023796,-3153.22812536894,-3154.14839234318,-3155.08476680641,-3156.02920679655,-3156.97431735274,-3157.93112240231,-3158.92573156005,-3159.93011280356,-3160.89988564146,-3161.83499978999,-3162.70564102076,-3163.47542035886,-3164.14475762697,-3164.78028722467,-3165.43615499231,-3166.10041770803,-3166.70659781951,-3167.27305447464,-3167.78041132944,-3168.21749128303,-3168.69860965732,-3169.19480551675,-3169.46287144502,-3169.52227610007,-3169.38333973417,-3168.97348717209,-3168.42031977562,-3167.98852799987,-3167.70729791306,-3167.53806590097,-3167.4853494109,-3167.53970375752,-3167.7120024448,-3167.93527055931,-3168.164456615,-3168.2838353125,-3168.07702262919,-3167.63193541257,-3167.1982847243,-3166.79408613355,-3166.48266332575,-3166.42146426286,-3166.41254834716,-3166.30863994495,-3166.27283040624,-3166.3021098787,-3166.37445491005,-3166.57530305204,-3166.83283372321,-3167.01867038641,-3167.1953600149,-3167.41749151286,-3167.66041842242,-3167.91023284653,-3168.14994628146,-3168.33616858704,-3168.4494030005,-3168.56731476451,-3168.78033161353,-3169.09154759249,-3169.5230634378,-3170.08204129951,-3170.67192431852,-3171.18371242384,-3171.58492158674,-3171.8495495459,-3171.95974422551,-3171.85586525878,-3171.38885990955,-3170.69342076721,-3169.99262877072,-3169.28925398512,-3168.59610659658,-3168.10050670126,-3167.74282822741,-3167.36830425574,-3167.1356442875,-3167.10201193386,-3167.16605314794,-3167.29783349696,-3167.5070476409,-3167.69019644876,-3167.95604774585,-3168.37827924188,-3168.87870311505,-3169.40272461312,-3169.91811176687,-3170.33318183428,-3170.52224628662,-3170.54991582027,-3170.40778388854,-3170.11155156048,-3169.7531247781,-3169.4683377115,-3169.2359725202,-3169.06526466269,-3168.98068613667,-3168.90033180998,-3168.81400157513,-3168.74226803828,-3168.55807717898,-3168.22047415541,-3167.80964230509,-3167.3487644523,-3166.84438372249,-3166.42549955726,-3166.22301377219,-3166.18335163837,-3166.12457635032,-3165.99095980338,-3165.8865819265,-3165.73461459234,-3165.42123055418,-3165.0784983846,-3164.7995007122,-3164.50076509852,-3164.17412940367,-3163.92287769591,-3163.74486710919,-3163.56958841693,-3163.40070087279,-3163.23040974236,-3163.02396737957,-3162.80271035153,-3162.62151481455,-3162.48765657412,-3162.33913735835,-3162.13568058257,-3161.90731424696,-3161.64822729437,-3161.30419277662,-3160.87337998945,-3160.43509541406,-3160.02675672057,-3159.59677670347,-3159.08831290167,-3158.55628560197,-3158.01628701341,-3157.4195875882,-3156.8014376884,-3156.19807024578,-3155.4510637077,-3154.55446519289,-3153.62220387694,-3152.70889419538,-3152.07713546844,-3151.82660601355,-3151.75766807725,-3151.73960336766,-3151.65914581778,-3151.30374122387,-3150.7460279486,-3150.171578991,-3149.65013273588,-3149.18775454561,-3148.64135584859,-3147.99121509828,-3147.23783171885,-3146.38416836136,-3145.61479580588
-3152.3856506986,-3152.3856506986,-3152.4086327841,-3152.61081009391,-3152.99285928127,-3153.55987698009,-3154.31142822199,-3155.22413335297,-3156.14440032721,-3157.08077479044,-3158.02521478058,-3158.97032533678,-3159.92713038635,-3160.92173954408,-3161.92612078759,-3162.89589362549,-3163.83100777402,-3164.70164900479,-3165.47142834289,-3166.140765611,-3166.7762952087,-3167.43216297635,-3168.09642569206,-3168.70260580354,-3169.26906245867,-3169.77641931347,-3170.21349926706,-3170.69461764135,-3171.19081350078,-3171.45887942905,-3171.5182840841,-3171.3793477182,-3170.96949515612,-3170.41632775966,-3169.98453598391,-3169.70330589709,-3169.534073885,-3169.48135739493,-3169.53571174155,-3169.70801042883,-3169.93127854334,-3170.16046459903,-3170.27984329653,-3170.07303061322,-3169.6279433966,-3169.19429270833,-3168.79009411758,-3168.47867130978,-3168.41747224689,-3168.40855633119,-3168.30464792898,-3168.26883839027,-3168.29811786273,-3168.37046289408,-3168.57131103607,-3168.82884170725,-3169.01467837044,-3169.19136799893,-3169.41349949689,-3169.65642640645,-3169.90624083057,-3170.14595426549,-3170.33217657107,-3170.44541098453,-3170.56332274855,-3170.77633959756,-3171.08755557652,-3171.51907142183,-3172.07804928355,-3172.66793230255,-3173.17972040787,-3173.58092957077,-3173.84555752993,-3173.95575220954,-3173.85187324281,-3173.38486789358,-3172.68942875124,-3171.98863675475,-3171.28526196915,-3170.59211458062,-3170.09651468529,-3169.73883621144,-3169.36431223978,-3169.13165227153,-3169.0980199179,-3169.16206113198,-3169.293841481,-3169.50305562493,-3169.68620443279,-3169.95205572989,-3170.37428722591,-3170.87471109908,-3171.39873259715,-3171.9141197509,-3172.32918981831,-3172.51825427065,-3172.5459238043,-3172.40379187257,-3172.10755954451,-3171.74913276213,-3171.46434569554,-3171.23198050424,-3171.06127264673,-3170.9766941207,-3170.89633979401,-3170.81000955916,-3170.73827602231,-3170.55408516302,-3170.21648213944,-3169.80565028912,-3169.34477243633,-3168.84039170652,-3168.42150754129,-3168.21902175622,-3168.1793596224,-3168.12058433436,-3167.98696778741,-3167.88258991053,-3167.73062257638,-3167.41723853821,-3167.07450636863,-3166.79550869624,-3166.49677308255,-3166.1701373877,-3165.91888567994,-3165.74087509322,-3165.56559640096,-3165.39670885682,-3165.22641772639,-3165.01997536361,-3164.79871833557,-3164.61752279858,-3164.48366455815,-3164.33514534238,-3164.1316885666,-3163.90332223099,-3163.6442352784,-3163.30020076065,-3162.86938797348,-3162.43110339809,-3162.0227647046,-3161.59278468751,-3161.0843208857,-3160.552293586,-3160.01229499744,-3159.41559557224,-3158.79744567244,-3158.19407822982,-3157.44707169173,-3156.55047317693,-3155.61821186098,-3154.70490217941,-3154.07314345247,-3153.82261399758,-3153.75367606128,-3153.7356113517,-3153.65515380182,-3153.2997492079,-3152.74203593263,-3152.16758697503,-3151.64614071992,-3151.18376252964,-3150.63736383262,-3149.98722308232,-3149.23383970288,-3148.38017634539,-3147.61080378992
-3154.38165868263,-3154.38165868263,-3154.40464076814,-3154.60681807794,-3154.9888672653,-3155.55588496412,-3156.30743620602,-3157.220141337,-3158.14040831125,-3159.07678277447,-3160.02122276461,-3160.96633332081,-3161.92313837038,-3162.91774752812,-3163.92212877162,-3164.89190160952,-3165.82701575805,-3166.69765698883,-3167.46743632693,-3168.13677359503,-3168.77230319273,-3169.42817096038,-3170.09243367609,-3170.69861378757,-3171.2650704427,-3171.7724272975,-3172.20950725109,-3172.69062562538,-3173.18682148481,-3173.45488741308,-3173.51429206813,-3173.37535570223,-3172.96550314015,-3172.41233574369,-3171.98054396794,-3171.69931388112,-3171.53008186903,-3171.47736537897,-3171.53171972558,-3171.70401841286,-3171.92728652737,-3172.15647258306,-3172.27585128056,-3172.06903859725,-3171.62395138063,-3171.19030069236,-3170.78610210161,-3170.47467929382,-3170.41348023092,-3170.40456431522,-3170.30065591302,-3170.2648463743,-3170.29412584676,-3170.36647087812,-3170.5673190201,-3170.82484969128,-3171.01068635447,-3171.18737598296,-3171.40950748093,-3171.65243439048,-3171.9022488146,-3172.14196224952,-3172.32818455511,-3172.44141896856,-3172.55933073258,-3172.77234758159,-3173.08356356055,-3173.51507940586,-3174.07405726758,-3174.66394028658,-3175.17572839191,-3175.57693755481,-3175.84156551397,-3175.95176019357,-3175.84788122684,-3175.38087587762,-3174.68543673527,-3173.98464473878,-3173.28126995319,-3172.58812256465,-3172.09252266932,-3171.73484419547,-3171.36032022381,-3171.12766025556,-3171.09402790193,-3171.15806911601,-3171.28984946503,-3171.49906360896,-3171.68221241682,-3171.94806371392,-3172.37029520995,-3172.87071908311,-3173.39474058118,-3173.91012773493,-3174.32519780234,-3174.51426225468,-3174.54193178834,-3174.3997998566,-3174.10356752854,-3173.74514074616,-3173.46035367957,-3173.22798848827,-3173.05728063076,-3172.97270210473,-3172.89234777805,-3172.80601754319,-3172.73428400634,-3172.55009314705,-3172.21249012347,-3171.80165827316,-3171.34078042036,-3170.83639969055,-3170.41751552532,-3170.21502974026,-3170.17536760643,-3170.11659231839,-3169.98297577145,-3169.87859789456,-3169.72663056041,-3169.41324652224,-3169.07051435266,-3168.79151668027,-3168.49278106658,-3168.16614537173,-3167.91489366398,-3167.73688307726,-3167.56160438499,-3167.39271684085,-3167.22242571042,-3167.01598334764,-3166.7947263196,-3166.61353078261,-3166.47967254218,-3166.33115332641,-3166.12769655063,-3165.89933021502,-3165.64024326244,-3165.29620874468,-3164.86539595751,-3164.42711138213,-3164.01877268863,-3163.58879267154,-3163.08032886974,-3162.54830157003,-3162.00830298147,-3161.41160355627,-3160.79345365647,-3160.19008621385,-3159.44307967576,-3158.54648116096,-3157.61421984501,-3156.70091016344,-3156.0691514365,-3155.81862198161,-3155.74968404532,-3155.73161933573,-3155.65116178585,-3155.29575719194,-3154.73804391667,-3154.16359495906,-3153.64214870395,-3153.17977051367,-3152.63337181666,-3151.98323106635,-3151.22984768691,-3150.37618432943,-3149.60681177395
-3156.37766666667,-3156.37766666667,-3156.40064875217,-3156.60282606197,-3156.98487524933,-3157.55189294815,-3158.30344419006,-3159.21614932104,-3160.13641629528,-3161.0727907585,-3162.01723074864,-3162.96234130484,-3163.91914635441,-3164.91375551215,-3165.91813675566,-3166.88790959355,-3167.82302374208,-3168.69366497286,-3169.46344431096,-3170.13278157906,-3170.76831117677,-3171.42417894441,-3172.08844166012,-3172.6946217716,-3173.26107842673,-3173.76843528154,-3174.20551523512,-3174.68663360941,-3175.18282946885,-3175.45089539711,-3175.51030005216,-3175.37136368626,-3174.96151112418,-3174.40834372772,-3173.97655195197,-3173.69532186516,-3173.52608985306,-3173.473373363,-3173.52772770961,-3173.70002639689,-3173.9232945114,-3174.15248056709,-3174.2718592646,-3174.06504658129,-3173.61995936466,-3173.1863086764,-3172.78211008564,-3172.47068727785,-3172.40948821495,-3172.40057229926,-3172.29666389705,-3172.26085435833,-3172.29013383079,-3172.36247886215,-3172.56332700414,-3172.82085767531,-3173.00669433851,-3173.183383967,-3173.40551546496,-3173.64844237451,-3173.89825679863,-3174.13797023355,-3174.32419253914,-3174.43742695259,-3174.55533871661,-3174.76835556562,-3175.07957154459,-3175.5110873899,-3176.07006525161,-3176.65994827061,-3177.17173637594,-3177.57294553884,-3177.837573498,-3177.9477681776,-3177.84388921087,-3177.37688386165,-3176.68144471931,-3175.98065272281,-3175.27727793722,-3174.58413054868,-3174.08853065335,-3173.7308521795,-3173.35632820784,-3173.12366823959,-3173.09003588596,-3173.15407710004,-3173.28585744906,-3173.49507159299,-3173.67822040085,-3173.94407169795,-3174.36630319398,-3174.86672706715,-3175.39074856521,-3175.90613571896,-3176.32120578637,-3176.51027023872,-3176.53793977237,-3176.39580784063,-3176.09957551257,-3175.7411487302,-3175.4563616636,-3175.2239964723,-3175.05328861479,-3174.96871008877,-3174.88835576208,-3174.80202552723,-3174.73029199038,-3174.54610113108,-3174.2084981075,-3173.79766625719,-3173.33678840439,-3172.83240767459,-3172.41352350936,-3172.21103772429,-3172.17137559046,-3172.11260030242,-3171.97898375548,-3171.8746058786,-3171.72263854444,-3171.40925450627,-3171.06652233669,-3170.7875246643,-3170.48878905061,-3170.16215335576,-3169.91090164801,-3169.73289106129,-3169.55761236902,-3169.38872482488,-3169.21843369446,-3169.01199133167,-3168.79073430363,-3168.60953876664,-3168.47568052621,-3168.32716131044,-3168.12370453467,-3167.89533819905,-3167.63625124647,-3167.29221672871,-3166.86140394154,-3166.42311936616,-3166.01478067266,-3165.58480065557,-3165.07633685377,-3164.54430955406,-3164.00431096551,-3163.4076115403,-3162.7894616405,-3162.18609419788,-3161.43908765979,-3160.54248914499,-3159.61022782904,-3158.69691814747,-3158.06515942053,-3157.81462996564,-3157.74569202935,-3157.72762731976,-3157.64716976988,-3157.29176517597,-3156.7340519007,-3156.15960294309,-3155.63815668798,-3155.1757784977,-3154.62937980069,-3153.97923905038,-3153.22585567094,-3152.37219231346,-3151.60281975798
-3158.3736746507,-3158.3736746507,-3158.3966567362,-3158.59883404601,-3158.98088323336,-3159.54790093218,-3160.29945217409,-3161.21215730507,-3162.13242427931,-3163.06879874254,-3164.01323873267,-3164.95834928887,-3165.91515433844,-3166.90976349618,-3167.91414473969,-3168.88391757758,-3169.81903172612,-3170.68967295689,-3171.45945229499,-3172.12878956309,-3172.7643191608,-3173.42018692844,-3174.08444964416,-3174.69062975563,-3175.25708641076,-3175.76444326557,-3176.20152321916,-3176.68264159345,-3177.17883745288,-3177.44690338115,-3177.5063080362,-3177.3673716703,-3176.95751910821,-3176.40435171175,-3175.972559936,-3175.69132984919,-3175.52209783709,-3175.46938134703,-3175.52373569364,-3175.69603438092,-3175.91930249543,-3176.14848855112,-3176.26786724863,-3176.06105456532,-3175.61596734869,-3175.18231666043,-3174.77811806968,-3174.46669526188,-3174.40549619899,-3174.39658028329,-3174.29267188108,-3174.25686234236,-3174.28614181483,-3174.35848684618,-3174.55933498817,-3174.81686565934,-3175.00270232254,-3175.17939195103,-3175.40152344899,-3175.64445035854,-3175.89426478266,-3176.13397821759,-3176.32020052317,-3176.43343493662,-3176.55134670064,-3176.76436354965,-3177.07557952862,-3177.50709537393,-3178.06607323564,-3178.65595625464,-3179.16774435997,-3179.56895352287,-3179.83358148203,-3179.94377616164,-3179.8398971949,-3179.37289184568,-3178.67745270334,-3177.97666070684,-3177.27328592125,-3176.58013853271,-3176.08453863739,-3175.72686016354,-3175.35233619187,-3175.11967622363,-3175.08604386999,-3175.15008508407,-3175.28186543309,-3175.49107957702,-3175.67422838489,-3175.94007968198,-3176.36231117801,-3176.86273505118,-3177.38675654925,-3177.902143703,-3178.31721377041,-3178.50627822275,-3178.5339477564,-3178.39181582467,-3178.09558349661,-3177.73715671423,-3177.45236964763,-3177.22000445633,-3177.04929659882,-3176.9647180728,-3176.88436374611,-3176.79803351126,-3176.72629997441,-3176.54210911511,-3176.20450609153,-3175.79367424122,-3175.33279638842,-3174.82841565862,-3174.40953149339,-3174.20704570832,-3174.1673835745,-3174.10860828645,-3173.97499173951,-3173.87061386263,-3173.71864652847,-3173.4052624903,-3173.06253032073,-3172.78353264833,-3172.48479703464,-3172.15816133979,-3171.90690963204,-3171.72889904532,-3171.55362035306,-3171.38473280892,-3171.21444167849,-3171.0079993157,-3170.78674228766,-3170.60554675068,-3170.47168851025,-3170.32316929447,-3170.1197125187,-3169.89134618309,-3169.6322592305,-3169.28822471275,-3168.85741192557,-3168.41912735019,-3168.01078865669,-3167.5808086396,-3167.0723448378,-3166.54031753809,-3166.00031894954,-3165.40361952433,-3164.78546962453,-3164.18210218191,-3163.43509564383,-3162.53849712902,-3161.60623581307,-3160.6929261315,-3160.06116740457,-3159.81063794967,-3159.74170001338,-3159.72363530379,-3159.64317775391,-3159.28777316,-3158.73005988473,-3158.15561092713,-3157.63416467201,-3157.17178648173,-3156.62538778472,-3155.97524703441,-3155.22186365497,-3154.36820029749,-3153.59882774201
-3160.36968263473,-3160.36968263473,-3160.39266472023,-3160.59484203004,-3160.97689121739,-3161.54390891621,-3162.29546015812,-3163.2081652891,-3164.12843226334,-3165.06480672657,-3166.00924671671,-3166.9543572729,-3167.91116232247,-3168.90577148021,-3169.91015272372,-3170.87992556162,-3171.81503971015,-3172.68568094092,-3173.45546027902,-3174.12479754713,-3174.76032714483,-3175.41619491247,-3176.08045762819,-3176.68663773967,-3177.2530943948,-3177.7604512496,-3178.19753120319,-3178.67864957748,-3179.17484543691,-3179.44291136518,-3179.50231602023,-3179.36337965433,-3178.95352709225,-3178.40035969578,-3177.96856792003,-3177.68733783322,-3177.51810582113,-3177.46538933106,-3177.51974367768,-3177.69204236496,-3177.91531047947,-3178.14449653516,-3178.26387523266,-3178.05706254935,-3177.61197533273,-3177.17832464446,-3176.77412605371,-3176.46270324591,-3176.40150418302,-3176.39258826732,-3176.28867986511,-3176.2528703264,-3176.28214979886,-3176.35449483021,-3176.5553429722,-3176.81287364337,-3176.99871030657,-3177.17539993506,-3177.39753143302,-3177.64045834258,-3177.89027276669,-3178.12998620162,-3178.3162085072,-3178.42944292066,-3178.54735468467,-3178.76037153369,-3179.07158751265,-3179.50310335796,-3180.06208121967,-3180.65196423868,-3181.163752344,-3181.5649615069,-3181.82958946606,-3181.93978414567,-3181.83590517894,-3181.36889982971,-3180.67346068737,-3179.97266869088,-3179.26929390528,-3178.57614651674,-3178.08054662142,-3177.72286814757,-3177.3483441759,-3177.11568420766,-3177.08205185402,-3177.1460930681,-3177.27787341712,-3177.48708756106,-3177.67023636892,-3177.93608766601,-3178.35831916204,-3178.85874303521,-3179.38276453328,-3179.89815168703,-3180.31322175444,-3180.50228620678,-3180.52995574043,-3180.3878238087,-3180.09159148064,-3179.73316469826,-3179.44837763166,-3179.21601244036,-3179.04530458285,-3178.96072605683,-3178.88037173014,-3178.79404149529,-3178.72230795844,-3178.53811709914,-3178.20051407557,-3177.78968222525,-3177.32880437246,-3176.82442364265,-3176.40553947742,-3176.20305369235,-3176.16339155853,-3176.10461627048,-3175.97099972354,-3175.86662184666,-3175.7146545125,-3175.40127047434,-3175.05853830476,-3174.77954063236,-3174.48080501868,-3174.15416932383,-3173.90291761607,-3173.72490702935,-3173.54962833709,-3173.38074079295,-3173.21044966252,-3173.00400729973,-3172.78275027169,-3172.60155473471,-3172.46769649428,-3172.31917727851,-3172.11572050273,-3171.88735416712,-3171.62826721453,-3171.28423269678,-3170.85341990961,-3170.41513533422,-3170.00679664073,-3169.57681662363,-3169.06835282183,-3168.53632552213,-3167.99632693357,-3167.39962750836,-3166.78147760856,-3166.17811016594,-3165.43110362786,-3164.53450511305,-3163.6022437971,-3162.68893411554,-3162.0571753886,-3161.80664593371,-3161.73770799741,-3161.71964328782,-3161.63918573794,-3161.28378114403,-3160.72606786876,-3160.15161891116,-3159.63017265604,-3159.16779446577,-3158.62139576875,-3157.97125501844,-3157.21787163901,-3156.36420828152,-3155.59483572604
-3162.36569061876,-3162.36569061876,-3162.38867270426,-3162.59085001407,-3162.97289920143,-3163.53991690024,-3164.29146814215,-3165.20417327313,-3166.12444024737,-3167.0608147106,-3168.00525470074,-3168.95036525693,-3169.90717030651,-3170.90177946424,-3171.90616070775,-3172.87593354565,-3173.81104769418,-3174.68168892495,-3175.45146826305,-3176.12080553116,-3176.75633512886,-3177.41220289651,-3178.07646561222,-3178.6826457237,-3179.24910237883,-3179.75645923363,-3180.19353918722,-3180.67465756151,-3181.17085342094,-3181.43891934921,-3181.49832400426,-3181.35938763836,-3180.94953507628,-3180.39636767981,-3179.96457590406,-3179.68334581725,-3179.51411380516,-3179.46139731509,-3179.51575166171,-3179.68805034899,-3179.9113184635,-3180.14050451919,-3180.25988321669,-3180.05307053338,-3179.60798331676,-3179.17433262849,-3178.77013403774,-3178.45871122994,-3178.39751216705,-3178.38859625135,-3178.28468784914,-3178.24887831043,-3178.27815778289,-3178.35050281424,-3178.55135095623,-3178.80888162741,-3178.9947182906,-3179.17140791909,-3179.39353941705,-3179.63646632661,-3179.88628075073,-3180.12599418565,-3180.31221649123,-3180.42545090469,-3180.54336266871,-3180.75637951772,-3181.06759549668,-3181.49911134199,-3182.05808920371,-3182.64797222271,-3183.15976032803,-3183.56096949093,-3183.82559745009,-3183.9357921297,-3183.83191316297,-3183.36490781374,-3182.6694686714,-3181.96867667491,-3181.26530188931,-3180.57215450078,-3180.07655460545,-3179.7188761316,-3179.34435215993,-3179.11169219169,-3179.07805983806,-3179.14210105214,-3179.27388140115,-3179.48309554509,-3179.66624435295,-3179.93209565004,-3180.35432714607,-3180.85475101924,-3181.37877251731,-3181.89415967106,-3182.30922973847,-3182.49829419081,-3182.52596372446,-3182.38383179273,-3182.08759946467,-3181.72917268229,-3181.4443856157,-3181.2120204244,-3181.04131256689,-3180.95673404086,-3180.87637971417,-3180.79004947932,-3180.71831594247,-3180.53412508318,-3180.1965220596,-3179.78569020928,-3179.32481235649,-3178.82043162668,-3178.40154746145,-3178.19906167638,-3178.15939954256,-3178.10062425451,-3177.96700770757,-3177.86262983069,-3177.71066249654,-3177.39727845837,-3177.05454628879,-3176.7755486164,-3176.47681300271,-3176.15017730786,-3175.8989256001,-3175.72091501338,-3175.54563632112,-3175.37674877698,-3175.20645764655,-3175.00001528377,-3174.77875825573,-3174.59756271874,-3174.46370447831,-3174.31518526254,-3174.11172848676,-3173.88336215115,-3173.62427519856,-3173.28024068081,-3172.84942789364,-3172.41114331825,-3172.00280462476,-3171.57282460767,-3171.06436080586,-3170.53233350616,-3169.9923349176,-3169.3956354924,-3168.7774855926,-3168.17411814998,-3167.42711161189,-3166.53051309709,-3165.59825178113,-3164.68494209957,-3164.05318337263,-3163.80265391774,-3163.73371598144,-3163.71565127186,-3163.63519372198,-3163.27978912806,-3162.72207585279,-3162.14762689519,-3161.62618064008,-3161.1638024498,-3160.61740375278,-3159.96726300248,-3159.21387962304,-3158.36021626555,-3157.59084371008
-3164.36169860279,-3164.36169860279,-3164.3846806883,-3164.5868579981,-3164.96890718546,-3165.53592488428,-3166.28747612618,-3167.20018125716,-3168.12044823141,-3169.05682269463,-3170.00126268477,-3170.94637324097,-3171.90317829054,-3172.89778744828,-3173.90216869178,-3174.87194152968,-3175.80705567821,-3176.67769690899,-3177.44747624709,-3178.11681351519,-3178.75234311289,-3179.40821088054,-3180.07247359625,-3180.67865370773,-3181.24511036286,-3181.75246721766,-3182.18954717125,-3182.67066554554,-3183.16686140497,-3183.43492733324,-3183.49433198829,-3183.35539562239,-3182.94554306031,-3182.39237566385,-3181.9605838881,-3181.67935380128,-3181.51012178919,-3181.45740529913,-3181.51175964574,-3181.68405833302,-3181.90732644753,-3182.13651250322,-3182.25589120072,-3182.04907851741,-3181.60399130079,-3181.17034061252,-3180.76614202177,-3180.45471921398,-3180.39352015108,-3180.38460423538,-3180.28069583318,-3180.24488629446,-3180.27416576692,-3180.34651079828,-3180.54735894026,-3180.80488961144,-3180.99072627463,-3181.16741590312,-3181.38954740109,-3181.63247431064,-3181.88228873476,-3182.12200216968,-3182.30822447526,-3182.42145888872,-3182.53937065274,-3182.75238750175,-3183.06360348071,-3183.49511932602,-3184.05409718774,-3184.64398020674,-3185.15576831206,-3185.55697747497,-3185.82160543413,-3185.93180011373,-3185.827921147,-3185.36091579778,-3184.66547665543,-3183.96468465894,-3183.26130987335,-3182.56816248481,-3182.07256258948,-3181.71488411563,-3181.34036014397,-3181.10770017572,-3181.07406782209,-3181.13810903617,-3181.26988938519,-3181.47910352912,-3181.66225233698,-3181.92810363408,-3182.35033513011,-3182.85075900327,-3183.37478050134,-3183.89016765509,-3184.3052377225,-3184.49430217484,-3184.52197170849,-3184.37983977676,-3184.0836074487,-3183.72518066632,-3183.44039359973,-3183.20802840843,-3183.03732055092,-3182.95274202489,-3182.87238769821,-3182.78605746335,-3182.7143239265,-3182.53013306721,-3182.19253004363,-3181.78169819331,-3181.32082034052,-3180.81643961071,-3180.39755544548,-3180.19506966042,-3180.15540752659,-3180.09663223855,-3179.96301569161,-3179.85863781472,-3179.70667048057,-3179.3932864424,-3179.05055427282,-3178.77155660043,-3178.47282098674,-3178.14618529189,-3177.89493358414,-3177.71692299742,-3177.54164430515,-3177.37275676101,-3177.20246563058,-3176.9960232678,-3176.77476623976,-3176.59357070277,-3176.45971246234,-3176.31119324657,-3176.10773647079,-3175.87937013518,-3175.62028318259,-3175.27624866484,-3174.84543587767,-3174.40715130229,-3173.99881260879,-3173.5688325917,-3173.06036878989,-3172.52834149019,-3171.98834290163,-3171.39164347643,-3170.77349357663,-3170.17012613401,-3169.42311959592,-3168.52652108112,-3167.59425976517,-3166.6809500836,-3166.04919135666,-3165.79866190177,-3165.72972396548,-3165.71165925589,-3165.63120170601,-3165.27579711209,-3164.71808383683,-3164.14363487922,-3163.62218862411,-3163.15981043383,-3162.61341173681,-3161.96327098651,-3161.20988760707,-3160.35622424959,-3159.58685169411
-3166.35770658683,-3166.35770658683,-3166.38068867233,-3166.58286598213,-3166.96491516949,-3167.53193286831,-3168.28348411022,-3169.1961892412,-3170.11645621544,-3171.05283067866,-3171.9972706688,-3172.942381225,-3173.89918627457,-3174.89379543231,-3175.89817667582,-3176.86794951371,-3177.80306366224,-3178.67370489302,-3179.44348423112,-3180.11282149922,-3180.74835109693,-3181.40421886457,-3182.06848158028,-3182.67466169176,-3183.24111834689,-3183.7484752017,-3184.18555515528,-3184.66667352957,-3185.16286938901,-3185.43093531727,-3185.49033997232,-3185.35140360642,-3184.94155104434,-3184.38838364788,-3183.95659187213,-3183.67536178532,-3183.50612977322,-3183.45341328316,-3183.50776762977,-3183.68006631705,-3183.90333443156,-3184.13252048725,-3184.25189918476,-3184.04508650145,-3183.59999928482,-3183.16634859656,-3182.7621500058,-3182.45072719801,-3182.38952813511,-3182.38061221942,-3182.27670381721,-3182.24089427849,-3182.27017375095,-3182.34251878231,-3182.5433669243,-3182.80089759547,-3182.98673425867,-3183.16342388716,-3183.38555538512,-3183.62848229467,-3183.87829671879,-3184.11801015371,-3184.3042324593,-3184.41746687275,-3184.53537863677,-3184.74839548578,-3185.05961146475,-3185.49112731006,-3186.05010517177,-3186.63998819077,-3187.1517762961,-3187.552985459,-3187.81761341816,-3187.92780809776,-3187.82392913103,-3187.35692378181,-3186.66148463947,-3185.96069264297,-3185.25731785738,-3184.56417046884,-3184.06857057351,-3183.71089209966,-3183.336368128,-3183.10370815975,-3183.07007580612,-3183.1341170202,-3183.26589736922,-3183.47511151315,-3183.65826032101,-3183.92411161811,-3184.34634311414,-3184.84676698731,-3185.37078848537,-3185.88617563912,-3186.30124570653,-3186.49031015888,-3186.51797969253,-3186.37584776079,-3186.07961543273,-3185.72118865036,-3185.43640158376,-3185.20403639246,-3185.03332853495,-3184.94875000893,-3184.86839568224,-3184.78206544739,-3184.71033191054,-3184.52614105124,-3184.18853802766,-3183.77770617735,-3183.31682832455,-3182.81244759475,-3182.39356342952,-3182.19107764445,-3182.15141551062,-3182.09264022258,-3181.95902367564,-3181.85464579876,-3181.7026784646,-3181.38929442643,-3181.04656225685,-3180.76756458446,-3180.46882897077,-3180.14219327592,-3179.89094156817,-3179.71293098145,-3179.53765228918,-3179.36876474504,-3179.19847361462,-3178.99203125183,-3178.77077422379,-3178.5895786868,-3178.45572044637,-3178.3072012306,-3178.10374445483,-3177.87537811921,-3177.61629116663,-3177.27225664887,-3176.8414438617,-3176.40315928632,-3175.99482059282,-3175.56484057573,-3175.05637677393,-3174.52434947422,-3173.98435088567,-3173.38765146046,-3172.76950156066,-3172.16613411804,-3171.41912757995,-3170.52252906515,-3169.5902677492,-3168.67695806763,-3168.04519934069,-3167.7946698858,-3167.72573194951,-3167.70766723992,-3167.62720969004,-3167.27180509613,-3166.71409182086,-3166.13964286325,-3165.61819660814,-3165.15581841786,-3164.60941972085,-3163.95927897054,-3163.2058955911,-3162.35223223362,-3161.58285967814
-3168.35371457086,-3168.35371457086,-3168.37669665636,-3168.57887396617,-3168.96092315352,-3169.52794085234,-3170.27949209425,-3171.19219722523,-3172.11246419947,-3173.0488386627,-3173.99327865283,-3174.93838920903,-3175.8951942586,-3176.88980341634,-3177.89418465985,-3178.86395749774,-3179.79907164628,-3180.66971287705,-3181.43949221515,-3182.10882948325,-3182.74435908096,-3183.4002268486,-3184.06448956431,-3184.67066967579,-3185.23712633092,-3185.74448318573,-3186.18156313932,-3186.66268151361,-3187.15887737304,-3187.42694330131,-3187.48634795636,-3187.34741159045,-3186.93755902837,-3186.38439163191,-3185.95259985616,-3185.67136976935,-3185.50213775725,-3185.44942126719,-3185.5037756138,-3185.67607430108,-3185.89934241559,-3186.12852847128,-3186.24790716879,-3186.04109448548,-3185.59600726885,-3185.16235658059,-3184.75815798984,-3184.44673518204,-3184.38553611915,-3184.37662020345,-3184.27271180124,-3184.23690226252,-3184.26618173499,-3184.33852676634,-3184.53937490833,-3184.7969055795,-3184.9827422427,-3185.15943187119,-3185.38156336915,-3185.6244902787,-3185.87430470282,-3186.11401813775,-3186.30024044333,-3186.41347485678,-3186.5313866208,-3186.74440346981,-3187.05561944878,-3187.48713529409,-3188.0461131558,-3188.6359961748,-3189.14778428013,-3189.54899344303,-3189.81362140219,-3189.9238160818,-3189.81993711506,-3189.35293176584,-3188.6574926235,-3187.956700627,-3187.25332584141,-3186.56017845287,-3186.06457855755,-3185.7069000837,-3185.33237611203,-3185.09971614379,-3185.06608379015,-3185.13012500423,-3185.26190535325,-3185.47111949718,-3185.65426830505,-3185.92011960214,-3186.34235109817,-3186.84277497134,-3187.36679646941,-3187.88218362316,-3188.29725369056,-3188.48631814291,-3188.51398767656,-3188.37185574483,-3188.07562341676,-3187.71719663439,-3187.43240956779,-3187.20004437649,-3187.02933651898,-3186.94475799296,-3186.86440366627,-3186.77807343142,-3186.70633989457,-3186.52214903527,-3186.18454601169,-3185.77371416138,-3185.31283630858,-3184.80845557878,-3184.38957141355,-3184.18708562848,-3184.14742349466,-3184.08864820661,-3183.95503165967,-3183.85065378279,-3183.69868644863,-3183.38530241046,-3183.04257024089,-3182.76357256849,-3182.4648369548,-3182.13820125995,-3181.8869495522,-3181.70893896548,-3181.53366027322,-3181.36477272908,-3181.19448159865,-3180.98803923586,-3180.76678220782,-3180.58558667084,-3180.4517284304,-3180.30320921463,-3180.09975243886,-3179.87138610325,-3179.61229915066,-3179.26826463291,-3178.83745184573,-3178.39916727035,-3177.99082857685,-3177.56084855976,-3177.05238475796,-3176.52035745825,-3175.9803588697,-3175.38365944449,-3174.76550954469,-3174.16214210207,-3173.41513556399,-3172.51853704918,-3171.58627573323,-3170.67296605166,-3170.04120732473,-3169.79067786983,-3169.72173993354,-3169.70367522395,-3169.62321767407,-3169.26781308016,-3168.71009980489,-3168.13565084729,-3167.61420459217,-3167.15182640189,-3166.60542770488,-3165.95528695457,-3165.20190357513,-3164.34824021765,-3163.57886766217
-3170.34972255489,-3170.34972255489,-3170.37270464039,-3170.5748819502,-3170.95693113755,-3171.52394883637,-3172.27550007828,-3173.18820520926,-3174.1084721835,-3175.04484664673,-3175.98928663687,-3176.93439719306,-3177.89120224263,-3178.88581140037,-3179.89019264388,-3180.85996548177,-3181.79507963031,-3182.66572086108,-3183.43550019918,-3184.10483746729,-3184.74036706499,-3185.39623483263,-3186.06049754835,-3186.66667765983,-3187.23313431496,-3187.74049116976,-3188.17757112335,-3188.65868949764,-3189.15488535707,-3189.42295128534,-3189.48235594039,-3189.34341957449,-3188.93356701241,-3188.38039961594,-3187.94860784019,-3187.66737775338,-3187.49814574128,-3187.44542925122,-3187.49978359783,-3187.67208228512,-3187.89535039962,-3188.12453645531,-3188.24391515282,-3188.03710246951,-3187.59201525289,-3187.15836456462,-3186.75416597387,-3186.44274316607,-3186.38154410318,-3186.37262818748,-3186.26871978527,-3186.23291024656,-3186.26218971902,-3186.33453475037,-3186.53538289236,-3186.79291356353,-3186.97875022673,-3187.15543985522,-3187.37757135318,-3187.62049826274,-3187.87031268685,-3188.11002612178,-3188.29624842736,-3188.40948284082,-3188.52739460483,-3188.74041145385,-3189.05162743281,-3189.48314327812,-3190.04212113983,-3190.63200415884,-3191.14379226416,-3191.54500142706,-3191.80962938622,-3191.91982406583,-3191.81594509909,-3191.34893974987,-3190.65350060753,-3189.95270861104,-3189.24933382544,-3188.5561864369,-3188.06058654158,-3187.70290806773,-3187.32838409606,-3187.09572412782,-3187.06209177418,-3187.12613298826,-3187.25791333728,-3187.46712748122,-3187.65027628908,-3187.91612758617,-3188.3383590822,-3188.83878295537,-3189.36280445344,-3189.87819160719,-3190.2932616746,-3190.48232612694,-3190.50999566059,-3190.36786372886,-3190.0716314008,-3189.71320461842,-3189.42841755182,-3189.19605236052,-3189.02534450301,-3188.94076597699,-3188.8604116503,-3188.77408141545,-3188.7023478786,-3188.5181570193,-3188.18055399573,-3187.76972214541,-3187.30884429262,-3186.80446356281,-3186.38557939758,-3186.18309361251,-3186.14343147869,-3186.08465619064,-3185.9510396437,-3185.84666176682,-3185.69469443266,-3185.3813103945,-3185.03857822492,-3184.75958055252,-3184.46084493884,-3184.13420924399,-3183.88295753623,-3183.70494694951,-3183.52966825725,-3183.36078071311,-3183.19048958268,-3182.98404721989,-3182.76279019185,-3182.58159465487,-3182.44773641444,-3182.29921719867,-3182.09576042289,-3181.86739408728,-3181.60830713469,-3181.26427261694,-3180.83345982977,-3180.39517525438,-3179.98683656089,-3179.55685654379,-3179.04839274199,-3178.51636544229,-3177.97636685373,-3177.37966742852,-3176.76151752872,-3176.1581500861,-3175.41114354802,-3174.51454503321,-3173.58228371726,-3172.6689740357,-3172.03721530876,-3171.78668585387,-3171.71774791757,-3171.69968320798,-3171.6192256581,-3171.26382106419,-3170.70610778892,-3170.13165883132,-3169.6102125762,-3169.14783438593,-3168.60143568891,-3167.9512949386,-3167.19791155917,-3166.34424820168,-3165.5748756462
-3172.34573053892,-3172.34573053892,-3172.36871262442,-3172.57088993423,-3172.95293912159,-3173.5199568204,-3174.27150806231,-3175.18421319329,-3176.10448016753,-3177.04085463076,-3177.9852946209,-3178.93040517709,-3179.88721022667,-3180.8818193844,-3181.88620062791,-3182.85597346581,-3183.79108761434,-3184.66172884511,-3185.43150818321,-3186.10084545132,-3186.73637504902,-3187.39224281667,-3188.05650553238,-3188.66268564386,-3189.22914229899,-3189.73649915379,-3190.17357910738,-3190.65469748167,-3191.1508933411,-3191.41895926937,-3191.47836392442,-3191.33942755852,-3190.92957499644,-3190.37640759997,-3189.94461582422,-3189.66338573741,-3189.49415372532,-3189.44143723525,-3189.49579158187,-3189.66809026915,-3189.89135838366,-3190.12054443935,-3190.23992313685,-3190.03311045354,-3189.58802323692,-3189.15437254865,-3188.7501739579,-3188.4387511501,-3188.37755208721,-3188.36863617151,-3188.2647277693,-3188.22891823059,-3188.25819770305,-3188.3305427344,-3188.53139087639,-3188.78892154757,-3188.97475821076,-3189.15144783925,-3189.37357933721,-3189.61650624677,-3189.86632067089,-3190.10603410581,-3190.29225641139,-3190.40549082485,-3190.52340258887,-3190.73641943788,-3191.04763541684,-3191.47915126215,-3192.03812912387,-3192.62801214287,-3193.13980024819,-3193.54100941109,-3193.80563737025,-3193.91583204986,-3193.81195308313,-3193.3449477339,-3192.64950859156,-3191.94871659507,-3191.24534180947,-3190.55219442093,-3190.05659452561,-3189.69891605176,-3189.32439208009,-3189.09173211185,-3189.05809975822,-3189.1221409723,-3189.25392132131,-3189.46313546525,-3189.64628427311,-3189.9121355702,-3190.33436706623,-3190.8347909394,-3191.35881243747,-3191.87419959122,-3192.28926965863,-3192.47833411097,-3192.50600364462,-3192.36387171289,-3192.06763938483,-3191.70921260245,-3191.42442553586,-3191.19206034456,-3191.02135248705,-3190.93677396102,-3190.85641963433,-3190.77008939948,-3190.69835586263,-3190.51416500334,-3190.17656197976,-3189.76573012944,-3189.30485227665,-3188.80047154684,-3188.38158738161,-3188.17910159654,-3188.13943946272,-3188.08066417467,-3187.94704762773,-3187.84266975085,-3187.6907024167,-3187.37731837853,-3187.03458620895,-3186.75558853656,-3186.45685292287,-3186.13021722802,-3185.87896552026,-3185.70095493354,-3185.52567624128,-3185.35678869714,-3185.18649756671,-3184.98005520393,-3184.75879817589,-3184.5776026389,-3184.44374439847,-3184.2952251827,-3184.09176840692,-3183.86340207131,-3183.60431511872,-3183.26028060097,-3182.8294678138,-3182.39118323841,-3181.98284454492,-3181.55286452783,-3181.04440072602,-3180.51237342632,-3179.97237483776,-3179.37567541256,-3178.75752551276,-3178.15415807014,-3177.40715153205,-3176.51055301725,-3175.57829170129,-3174.66498201973,-3174.03322329279,-3173.7826938379,-3173.7137559016,-3173.69569119202,-3173.61523364214,-3173.25982904822,-3172.70211577295,-3172.12766681535,-3171.60622056024,-3171.14384236996,-3170.59744367294,-3169.94730292264,-3169.1939195432,-3168.34025618571,-3167.57088363024
-3174.34173852295,-3174.34173852295,-3174.36472060846,-3174.56689791826,-3174.94894710562,-3175.51596480444,-3176.26751604634,-3177.18022117732,-3178.10048815157,-3179.03686261479,-3179.98130260493,-3180.92641316113,-3181.8832182107,-3182.87782736844,-3183.88220861194,-3184.85198144984,-3185.78709559837,-3186.65773682914,-3187.42751616725,-3188.09685343535,-3188.73238303305,-3189.3882508007,-3190.05251351641,-3190.65869362789,-3191.22515028302,-3191.73250713782,-3192.16958709141,-3192.6507054657,-3193.14690132513,-3193.4149672534,-3193.47437190845,-3193.33543554255,-3192.92558298047,-3192.37241558401,-3191.94062380826,-3191.65939372144,-3191.49016170935,-3191.43744521929,-3191.4917995659,-3191.66409825318,-3191.88736636769,-3192.11655242338,-3192.23593112088,-3192.02911843757,-3191.58403122095,-3191.15038053268,-3190.74618194193,-3190.43475913414,-3190.37356007124,-3190.36464415554,-3190.26073575334,-3190.22492621462,-3190.25420568708,-3190.32655071844,-3190.52739886042,-3190.7849295316,-3190.97076619479,-3191.14745582328,-3191.36958732125,-3191.6125142308,-3191.86232865492,-3192.10204208984,-3192.28826439542,-3192.40149880888,-3192.5194105729,-3192.73242742191,-3193.04364340087,-3193.47515924618,-3194.0341371079,-3194.6240201269,-3195.13580823222,-3195.53701739513,-3195.80164535429,-3195.91184003389,-3195.80796106716,-3195.34095571793,-3194.64551657559,-3193.9447245791,-3193.24134979351,-3192.54820240497,-3192.05260250964,-3191.69492403579,-3191.32040006413,-3191.08774009588,-3191.05410774225,-3191.11814895633,-3191.24992930535,-3191.45914344928,-3191.64229225714,-3191.90814355424,-3192.33037505027,-3192.83079892343,-3193.3548204215,-3193.87020757525,-3194.28527764266,-3194.474342095,-3194.50201162865,-3194.35987969692,-3194.06364736886,-3193.70522058648,-3193.42043351989,-3193.18806832859,-3193.01736047108,-3192.93278194505,-3192.85242761837,-3192.76609738351,-3192.69436384666,-3192.51017298737,-3192.17256996379,-3191.76173811347,-3191.30086026068,-3190.79647953087,-3190.37759536564,-3190.17510958058,-3190.13544744675,-3190.07667215871,-3189.94305561177,-3189.83867773488,-3189.68671040073,-3189.37332636256,-3189.03059419298,-3188.75159652059,-3188.4528609069,-3188.12622521205,-3187.87497350429,-3187.69696291758,-3187.52168422531,-3187.35279668117,-3187.18250555074,-3186.97606318796,-3186.75480615992,-3186.57361062293,-3186.4397523825,-3186.29123316673,-3186.08777639095,-3185.85941005534,-3185.60032310275,-3185.256288585,-3184.82547579783,-3184.38719122245,-3183.97885252895,-3183.54887251186,-3183.04040871005,-3182.50838141035,-3181.96838282179,-3181.37168339659,-3180.75353349679,-3180.15016605417,-3179.40315951608,-3178.50656100128,-3177.57429968533,-3176.66099000376,-3176.02923127682,-3175.77870182193,-3175.70976388564,-3175.69169917605,-3175.61124162617,-3175.25583703225,-3174.69812375699,-3174.12367479938,-3173.60222854427,-3173.13985035399,-3172.59345165697,-3171.94331090667,-3171.18992752723,-3170.33626416974,-3169.56689161427
-3176.33774650699,-3176.33774650699,-3176.36072859249,-3176.56290590229,-3176.94495508965,-3177.51197278847,-3178.26352403038,-3179.17622916136,-3180.0964961356,-3181.03287059882,-3181.97731058896,-3182.92242114516,-3183.87922619473,-3184.87383535247,-3185.87821659598,-3186.84798943387,-3187.7831035824,-3188.65374481318,-3189.42352415128,-3190.09286141938,-3190.72839101709,-3191.38425878473,-3192.04852150044,-3192.65470161192,-3193.22115826705,-3193.72851512186,-3194.16559507544,-3194.64671344973,-3195.14290930917,-3195.41097523743,-3195.47037989248,-3195.33144352658,-3194.9215909645,-3194.36842356804,-3193.93663179229,-3193.65540170548,-3193.48616969338,-3193.43345320332,-3193.48780754993,-3193.66010623721,-3193.88337435172,-3194.11256040741,-3194.23193910491,-3194.0251264216,-3193.58003920498,-3193.14638851671,-3192.74218992596,-3192.43076711817,-3192.36956805527,-3192.36065213958,-3192.25674373737,-3192.22093419865,-3192.25021367111,-3192.32255870247,-3192.52340684445,-3192.78093751563,-3192.96677417883,-3193.14346380731,-3193.36559530528,-3193.60852221483,-3193.85833663895,-3194.09805007387,-3194.28427237946,-3194.39750679291,-3194.51541855693,-3194.72843540594,-3195.03965138491,-3195.47116723022,-3196.03014509193,-3196.62002811093,-3197.13181621626,-3197.53302537916,-3197.79765333832,-3197.90784801792,-3197.80396905119,-3197.33696370197,-3196.64152455962,-3195.94073256313,-3195.23735777754,-3194.544210389,-3194.04861049367,-3193.69093201982,-3193.31640804816,-3193.08374807991,-3193.05011572628,-3193.11415694036,-3193.24593728938,-3193.45515143331,-3193.63830024117,-3193.90415153827,-3194.3263830343,-3194.82680690747,-3195.35082840553,-3195.86621555928,-3196.28128562669,-3196.47035007904,-3196.49801961269,-3196.35588768095,-3196.05965535289,-3195.70122857052,-3195.41644150392,-3195.18407631262,-3195.01336845511,-3194.92878992909,-3194.8484356024,-3194.76210536755,-3194.6903718307,-3194.5061809714,-3194.16857794782,-3193.75774609751,-3193.29686824471,-3192.79248751491,-3192.37360334968,-3192.17111756461,-3192.13145543078,-3192.07268014274,-3191.9390635958,-3191.83468571891,-3191.68271838476,-3191.36933434659,-3191.02660217701,-3190.74760450462,-3190.44886889093,-3190.12223319608,-3189.87098148833,-3189.69297090161,-3189.51769220934,-3189.3488046652,-3189.17851353478,-3188.97207117199,-3188.75081414395,-3188.56961860696,-3188.43576036653,-3188.28724115076,-3188.08378437498,-3187.85541803937,-3187.59633108679,-3187.25229656903,-3186.82148378186,-3186.38319920648,-3185.97486051298,-3185.54488049589,-3185.03641669409,-3184.50438939438,-3183.96439080582,-3183.36769138062,-3182.74954148082,-3182.1461740382,-3181.39916750011,-3180.50256898531,-3179.57030766936,-3178.65699798779,-3178.02523926085,-3177.77470980596,-3177.70577186967,-3177.68770716008,-3177.6072496102,-3177.25184501629,-3176.69413174102,-3176.11968278341,-3175.5982365283,-3175.13585833802,-3174.58945964101,-3173.9393188907,-3173.18593551126,-3172.33227215378,-3171.5628995983
-3178.33375449102,-3178.33375449102,-3178.35673657652,-3178.55891388633,-3178.94096307368,-3179.5079807725,-3180.25953201441,-3181.17223714539,-3182.09250411963,-3183.02887858286,-3183.97331857299,-3184.91842912919,-3185.87523417876,-3186.8698433365,-3187.87422458001,-3188.8439974179,-3189.77911156644,-3190.64975279721,-3191.41953213531,-3192.08886940341,-3192.72439900112,-3193.38026676876,-3194.04452948447,-3194.65070959595,-3195.21716625108,-3195.72452310589,-3196.16160305948,-3196.64272143377,-3197.1389172932,-3197.40698322147,-3197.46638787652,-3197.32745151061,-3196.91759894853,-3196.36443155207,-3195.93263977632,-3195.65140968951,-3195.48217767741,-3195.42946118735,-3195.48381553396,-3195.65611422124,-3195.87938233575,-3196.10856839144,-3196.22794708895,-3196.02113440564,-3195.57604718901,-3195.14239650075,-3194.73819791,-3194.4267751022,-3194.36557603931,-3194.35666012361,-3194.2527517214,-3194.21694218268,-3194.24622165515,-3194.3185666865,-3194.51941482849,-3194.77694549966,-3194.96278216286,-3195.13947179135,-3195.36160328931,-3195.60453019886,-3195.85434462298,-3196.09405805791,-3196.28028036349,-3196.39351477694,-3196.51142654096,-3196.72444338997,-3197.03565936894,-3197.46717521425,-3198.02615307596,-3198.61603609496,-3199.12782420029,-3199.52903336319,-3199.79366132235,-3199.90385600196,-3199.79997703522,-3199.332971686,-3198.63753254366,-3197.93674054716,-3197.23336576157,-3196.54021837303,-3196.04461847771,-3195.68694000386,-3195.31241603219,-3195.07975606395,-3195.04612371031,-3195.11016492439,-3195.24194527341,-3195.45115941734,-3195.63430822521,-3195.9001595223,-3196.32239101833,-3196.8228148915,-3197.34683638957,-3197.86222354331,-3198.27729361072,-3198.46635806307,-3198.49402759672,-3198.35189566499,-3198.05566333692,-3197.69723655455,-3197.41244948795,-3197.18008429665,-3197.00937643914,-3196.92479791312,-3196.84444358643,-3196.75811335158,-3196.68637981473,-3196.50218895543,-3196.16458593185,-3195.75375408154,-3195.29287622874,-3194.78849549894,-3194.36961133371,-3194.16712554864,-3194.12746341481,-3194.06868812677,-3193.93507157983,-3193.83069370295,-3193.67872636879,-3193.36534233062,-3193.02261016105,-3192.74361248865,-3192.44487687496,-3192.11824118011,-3191.86698947236,-3191.68897888564,-3191.51370019338,-3191.34481264924,-3191.17452151881,-3190.96807915602,-3190.74682212798,-3190.565626591,-3190.43176835056,-3190.28324913479,-3190.07979235902,-3189.85142602341,-3189.59233907082,-3189.24830455307,-3188.81749176589,-3188.37920719051,-3187.97086849701,-3187.54088847992,-3187.03242467812,-3186.50039737841,-3185.96039878986,-3185.36369936465,-3184.74554946485,-3184.14218202223,-3183.39517548415,-3182.49857696934,-3181.56631565339,-3180.65300597182,-3180.02124724489,-3179.77071778999,-3179.7017798537,-3179.68371514411,-3179.60325759423,-3179.24785300032,-3178.69013972505,-3178.11569076745,-3177.59424451233,-3177.13186632205,-3176.58546762504,-3175.93532687473,-3175.18194349529,-3174.32828013781,-3173.55890758233
-3180.32976247505,-3180.32976247505,-3180.35274456055,-3180.55492187036,-3180.93697105771,-3181.50398875653,-3182.25553999844,-3183.16824512942,-3184.08851210366,-3185.02488656689,-3185.96932655703,-3186.91443711322,-3187.87124216279,-3188.86585132053,-3189.87023256404,-3190.84000540193,-3191.77511955047,-3192.64576078124,-3193.41554011934,-3194.08487738744,-3194.72040698515,-3195.37627475279,-3196.04053746851,-3196.64671757999,-3197.21317423512,-3197.72053108992,-3198.15761104351,-3198.6387294178,-3199.13492527723,-3199.4029912055,-3199.46239586055,-3199.32345949465,-3198.91360693257,-3198.3604395361,-3197.92864776035,-3197.64741767354,-3197.47818566144,-3197.42546917138,-3197.47982351799,-3197.65212220528,-3197.87539031978,-3198.10457637547,-3198.22395507298,-3198.01714238967,-3197.57205517305,-3197.13840448478,-3196.73420589403,-3196.42278308623,-3196.36158402334,-3196.35266810764,-3196.24875970543,-3196.21295016672,-3196.24222963918,-3196.31457467053,-3196.51542281252,-3196.77295348369,-3196.95879014689,-3197.13547977538,-3197.35761127334,-3197.6005381829,-3197.85035260701,-3198.09006604194,-3198.27628834752,-3198.38952276098,-3198.50743452499,-3198.72045137401,-3199.03166735297,-3199.46318319828,-3200.02216105999,-3200.612044079,-3201.12383218432,-3201.52504134722,-3201.78966930638,-3201.89986398599,-3201.79598501925,-3201.32897967003,-3200.63354052769,-3199.9327485312,-3199.2293737456,-3198.53622635706,-3198.04062646174,-3197.68294798789,-3197.30842401622,-3197.07576404798,-3197.04213169434,-3197.10617290842,-3197.23795325744,-3197.44716740138,-3197.63031620924,-3197.89616750633,-3198.31839900236,-3198.81882287553,-3199.3428443736,-3199.85823152735,-3200.27330159476,-3200.4623660471,-3200.49003558075,-3200.34790364902,-3200.05167132096,-3199.69324453858,-3199.40845747198,-3199.17609228068,-3199.00538442317,-3198.92080589715,-3198.84045157046,-3198.75412133561,-3198.68238779876,-3198.49819693946,-3198.16059391589,-3197.74976206557,-3197.28888421277,-3196.78450348297,-3196.36561931774,-3196.16313353267,-3196.12347139885,-3196.0646961108,-3195.93107956386,-3195.82670168698,-3195.67473435282,-3195.36135031466,-3195.01861814508,-3194.73962047268,-3194.440884859,-3194.11424916414,-3193.86299745639,-3193.68498686967,-3193.50970817741,-3193.34082063327,-3193.17052950284,-3192.96408714005,-3192.74283011201,-3192.56163457503,-3192.4277763346,-3192.27925711882,-3192.07580034305,-3191.84743400744,-3191.58834705485,-3191.2443125371,-3190.81349974993,-3190.37521517454,-3189.96687648104,-3189.53689646395,-3189.02843266215,-3188.49640536245,-3187.95640677389,-3187.35970734868,-3186.74155744888,-3186.13819000626,-3185.39118346818,-3184.49458495337,-3183.56232363742,-3182.64901395586,-3182.01725522892,-3181.76672577403,-3181.69778783773,-3181.67972312814,-3181.59926557826,-3181.24386098435,-3180.68614770908,-3180.11169875148,-3179.59025249636,-3179.12787430608,-3178.58147560907,-3177.93133485876,-3177.17795147933,-3176.32428812184,-3175.55491556636
-3182.32577045908,-3182.32577045908,-3182.34875254458,-3182.55092985439,-3182.93297904175,-3183.49999674056,-3184.25154798247,-3185.16425311345,-3186.08452008769,-3187.02089455092,-3187.96533454106,-3188.91044509725,-3189.86725014683,-3190.86185930456,-3191.86624054807,-3192.83601338597,-3193.7711275345,-3194.64176876527,-3195.41154810337,-3196.08088537148,-3196.71641496918,-3197.37228273682,-3198.03654545254,-3198.64272556402,-3199.20918221915,-3199.71653907395,-3200.15361902754,-3200.63473740183,-3201.13093326126,-3201.39899918953,-3201.45840384458,-3201.31946747868,-3200.9096149166,-3200.35644752013,-3199.92465574438,-3199.64342565757,-3199.47419364548,-3199.42147715541,-3199.47583150203,-3199.64813018931,-3199.87139830382,-3200.10058435951,-3200.21996305701,-3200.0131503737,-3199.56806315708,-3199.13441246881,-3198.73021387806,-3198.41879107026,-3198.35759200737,-3198.34867609167,-3198.24476768946,-3198.20895815075,-3198.23823762321,-3198.31058265456,-3198.51143079655,-3198.76896146772,-3198.95479813092,-3199.13148775941,-3199.35361925737,-3199.59654616693,-3199.84636059105,-3200.08607402597,-3200.27229633155,-3200.38553074501,-3200.50344250903,-3200.71645935804,-3201.027675337,-3201.45919118231,-3202.01816904402,-3202.60805206303,-3203.11984016835,-3203.52104933125,-3203.78567729041,-3203.89587197002,-3203.79199300329,-3203.32498765406,-3202.62954851172,-3201.92875651523,-3201.22538172963,-3200.53223434109,-3200.03663444577,-3199.67895597192,-3199.30443200025,-3199.07177203201,-3199.03813967837,-3199.10218089245,-3199.23396124147,-3199.44317538541,-3199.62632419327,-3199.89217549036,-3200.31440698639,-3200.81483085956,-3201.33885235763,-3201.85423951138,-3202.26930957879,-3202.45837403113,-3202.48604356478,-3202.34391163305,-3202.04767930499,-3201.68925252261,-3201.40446545602,-3201.17210026471,-3201.00139240721,-3200.91681388118,-3200.83645955449,-3200.75012931964,-3200.67839578279,-3200.49420492349,-3200.15660189992,-3199.7457700496,-3199.28489219681,-3198.780511467,-3198.36162730177,-3198.1591415167,-3198.11947938288,-3198.06070409483,-3197.92708754789,-3197.82270967101,-3197.67074233686,-3197.35735829869,-3197.01462612911,-3196.73562845671,-3196.43689284303,-3196.11025714818,-3195.85900544042,-3195.6809948537,-3195.50571616144,-3195.3368286173,-3195.16653748687,-3194.96009512409,-3194.73883809605,-3194.55764255906,-3194.42378431863,-3194.27526510286,-3194.07180832708,-3193.84344199147,-3193.58435503888,-3193.24032052113,-3192.80950773396,-3192.37122315857,-3191.96288446508,-3191.53290444798,-3191.02444064618,-3190.49241334648,-3189.95241475792,-3189.35571533272,-3188.73756543292,-3188.13419799029,-3187.38719145221,-3186.49059293741,-3185.55833162145,-3184.64502193989,-3184.01326321295,-3183.76273375806,-3183.69379582176,-3183.67573111217,-3183.5952735623,-3183.23986896838,-3182.68215569311,-3182.10770673551,-3181.58626048039,-3181.12388229012,-3180.5774835931,-3179.9273428428,-3179.17395946336,-3178.32029610587,-3177.5509235504
-3184.32177844311,-3184.32177844311,-3184.34476052862,-3184.54693783842,-3184.92898702578,-3185.4960047246,-3186.2475559665,-3187.16026109748,-3188.08052807173,-3189.01690253495,-3189.96134252509,-3190.90645308129,-3191.86325813086,-3192.8578672886,-3193.8622485321,-3194.83202137,-3195.76713551853,-3196.6377767493,-3197.40755608741,-3198.07689335551,-3198.71242295321,-3199.36829072086,-3200.03255343657,-3200.63873354805,-3201.20519020318,-3201.71254705798,-3202.14962701157,-3202.63074538586,-3203.12694124529,-3203.39500717356,-3203.45441182861,-3203.31547546271,-3202.90562290063,-3202.35245550417,-3201.92066372842,-3201.6394336416,-3201.47020162951,-3201.41748513945,-3201.47183948606,-3201.64413817334,-3201.86740628785,-3202.09659234354,-3202.21597104104,-3202.00915835773,-3201.56407114111,-3201.13042045284,-3200.72622186209,-3200.4147990543,-3200.3535999914,-3200.3446840757,-3200.24077567349,-3200.20496613478,-3200.23424560724,-3200.3065906386,-3200.50743878058,-3200.76496945176,-3200.95080611495,-3201.12749574344,-3201.3496272414,-3201.59255415096,-3201.84236857508,-3202.08208201,-3202.26830431558,-3202.38153872904,-3202.49945049306,-3202.71246734207,-3203.02368332103,-3203.45519916634,-3204.01417702806,-3204.60406004706,-3205.11584815238,-3205.51705731529,-3205.78168527445,-3205.89187995405,-3205.78800098732,-3205.32099563809,-3204.62555649575,-3203.92476449926,-3203.22138971367,-3202.52824232513,-3202.0326424298,-3201.67496395595,-3201.30043998429,-3201.06778001604,-3201.03414766241,-3201.09818887649,-3201.22996922551,-3201.43918336944,-3201.6223321773,-3201.8881834744,-3202.31041497043,-3202.81083884359,-3203.33486034166,-3203.85024749541,-3204.26531756282,-3204.45438201516,-3204.48205154881,-3204.33991961708,-3204.04368728902,-3203.68526050664,-3203.40047344005,-3203.16810824875,-3202.99740039124,-3202.91282186521,-3202.83246753852,-3202.74613730367,-3202.67440376682,-3202.49021290753,-3202.15260988395,-3201.74177803363,-3201.28090018084,-3200.77651945103,-3200.3576352858,-3200.15514950074,-3200.11548736691,-3200.05671207887,-3199.92309553193,-3199.81871765504,-3199.66675032089,-3199.35336628272,-3199.01063411314,-3198.73163644075,-3198.43290082706,-3198.10626513221,-3197.85501342445,-3197.67700283774,-3197.50172414547,-3197.33283660133,-3197.1625454709,-3196.95610310812,-3196.73484608008,-3196.55365054309,-3196.41979230266,-3196.27127308689,-3196.06781631111,-3195.8394499755,-3195.58036302291,-3195.23632850516,-3194.80551571799,-3194.36723114261,-3193.95889244911,-3193.52891243202,-3193.02044863021,-3192.48842133051,-3191.94842274195,-3191.35172331675,-3190.73357341695,-3190.13020597433,-3189.38319943624,-3188.48660092144,-3187.55433960549,-3186.64102992392,-3186.00927119698,-3185.75874174209,-3185.6898038058,-3185.67173909621,-3185.59128154633,-3185.23587695241,-3184.67816367715,-3184.10371471954,-3183.58226846443,-3183.11989027415,-3182.57349157713,-3181.92335082683,-3181.16996744739,-3180.3163040899,-3179.54693153443
-3186.31778642715,-3186.31778642715,-3186.34076851265,-3186.54294582245,-3186.92499500981,-3187.49201270863,-3188.24356395054,-3189.15626908152,-3190.07653605576,-3191.01291051898,-3191.95735050912,-3192.90246106532,-3193.85926611489,-3194.85387527263,-3195.85825651614,-3196.82802935403,-3197.76314350256,-3198.63378473334,-3199.40356407144,-3200.07290133954,-3200.70843093725,-3201.36429870489,-3202.0285614206,-3202.63474153208,-3203.20119818721,-3203.70855504202,-3204.1456349956,-3204.62675336989,-3205.12294922933,-3205.39101515759,-3205.45041981264,-3205.31148344674,-3204.90163088466,-3204.3484634882,-3203.91667171245,-3203.63544162564,-3203.46620961354,-3203.41349312348,-3203.46784747009,-3203.64014615737,-3203.86341427188,-3204.09260032757,-3204.21197902507,-3204.00516634176,-3203.56007912514,-3203.12642843687,-3202.72222984612,-3202.41080703833,-3202.34960797543,-3202.34069205974,-3202.23678365753,-3202.20097411881,-3202.23025359127,-3202.30259862263,-3202.50344676461,-3202.76097743579,-3202.94681409899,-3203.12350372747,-3203.34563522544,-3203.58856213499,-3203.83837655911,-3204.07808999403,-3204.26431229962,-3204.37754671307,-3204.49545847709,-3204.7084753261,-3205.01969130507,-3205.45120715038,-3206.01018501209,-3206.60006803109,-3207.11185613642,-3207.51306529932,-3207.77769325848,-3207.88788793808,-3207.78400897135,-3207.31700362213,-3206.62156447978,-3205.92077248329,-3205.2173976977,-3204.52425030916,-3204.02865041383,-3203.67097193998,-3203.29644796832,-3203.06378800007,-3203.03015564644,-3203.09419686052,-3203.22597720954,-3203.43519135347,-3203.61834016133,-3203.88419145843,-3204.30642295446,-3204.80684682763,-3205.33086832569,-3205.84625547944,-3206.26132554685,-3206.4503899992,-3206.47805953285,-3206.33592760111,-3206.03969527305,-3205.68126849068,-3205.39648142408,-3205.16411623278,-3204.99340837527,-3204.90882984925,-3204.82847552256,-3204.74214528771,-3204.67041175086,-3204.48622089156,-3204.14861786798,-3203.73778601767,-3203.27690816487,-3202.77252743507,-3202.35364326984,-3202.15115748477,-3202.11149535094,-3202.0527200629,-3201.91910351596,-3201.81472563907,-3201.66275830492,-3201.34937426675,-3201.00664209717,-3200.72764442478,-3200.42890881109,-3200.10227311624,-3199.85102140849,-3199.67301082177,-3199.4977321295,-3199.32884458536,-3199.15855345494,-3198.95211109215,-3198.73085406411,-3198.54965852712,-3198.41580028669,-3198.26728107092,-3198.06382429514,-3197.83545795953,-3197.57637100695,-3197.23233648919,-3196.80152370202,-3196.36323912664,-3195.95490043314,-3195.52492041605,-3195.01645661425,-3194.48442931454,-3193.94443072598,-3193.34773130078,-3192.72958140098,-3192.12621395836,-3191.37920742027,-3190.48260890547,-3189.55034758952,-3188.63703790795,-3188.00527918101,-3187.75474972612,-3187.68581178983,-3187.66774708024,-3187.58728953036,-3187.23188493645,-3186.67417166118,-3186.09972270357,-3185.57827644846,-3185.11589825818,-3184.56949956117,-3183.91935881086,-3183.16597543142,-3182.31231207394,-3181.54293951846
-3188.31379441118,-3188.31379441118,-3188.33677649668,-3188.53895380648,-3188.92100299384,-3189.48802069266,-3190.23957193457,-3191.15227706555,-3192.07254403979,-3193.00891850302,-3193.95335849315,-3194.89846904935,-3195.85527409892,-3196.84988325666,-3197.85426450017,-3198.82403733806,-3199.75915148659,-3200.62979271737,-3201.39957205547,-3202.06890932357,-3202.70443892128,-3203.36030668892,-3204.02456940463,-3204.63074951611,-3205.19720617124,-3205.70456302605,-3206.14164297963,-3206.62276135393,-3207.11895721336,-3207.38702314162,-3207.44642779667,-3207.30749143077,-3206.89763886869,-3206.34447147223,-3205.91267969648,-3205.63144960967,-3205.46221759757,-3205.40950110751,-3205.46385545412,-3205.6361541414,-3205.85942225591,-3206.0886083116,-3206.20798700911,-3206.0011743258,-3205.55608710917,-3205.12243642091,-3204.71823783016,-3204.40681502236,-3204.34561595946,-3204.33670004377,-3204.23279164156,-3204.19698210284,-3204.22626157531,-3204.29860660666,-3204.49945474865,-3204.75698541982,-3204.94282208302,-3205.11951171151,-3205.34164320947,-3205.58457011902,-3205.83438454314,-3206.07409797807,-3206.26032028365,-3206.3735546971,-3206.49146646112,-3206.70448331013,-3207.0156992891,-3207.44721513441,-3208.00619299612,-3208.59607601512,-3209.10786412045,-3209.50907328335,-3209.77370124251,-3209.88389592212,-3209.78001695538,-3209.31301160616,-3208.61757246382,-3207.91678046732,-3207.21340568173,-3206.52025829319,-3206.02465839786,-3205.66697992401,-3205.29245595235,-3205.05979598411,-3205.02616363047,-3205.09020484455,-3205.22198519357,-3205.4311993375,-3205.61434814537,-3205.88019944246,-3206.30243093849,-3206.80285481166,-3207.32687630973,-3207.84226346347,-3208.25733353088,-3208.44639798323,-3208.47406751688,-3208.33193558515,-3208.03570325708,-3207.67727647471,-3207.39248940811,-3207.16012421681,-3206.9894163593,-3206.90483783328,-3206.82448350659,-3206.73815327174,-3206.66641973489,-3206.48222887559,-3206.14462585201,-3205.7337940017,-3205.2729161489,-3204.7685354191,-3204.34965125387,-3204.1471654688,-3204.10750333497,-3204.04872804693,-3203.91511149999,-3203.81073362311,-3203.65876628895,-3203.34538225078,-3203.00265008121,-3202.72365240881,-3202.42491679512,-3202.09828110027,-3201.84702939252,-3201.6690188058,-3201.49374011353,-3201.3248525694,-3201.15456143897,-3200.94811907618,-3200.72686204814,-3200.54566651116,-3200.41180827072,-3200.26328905495,-3200.05983227918,-3199.83146594357,-3199.57237899098,-3199.22834447322,-3198.79753168605,-3198.35924711067,-3197.95090841717,-3197.52092840008,-3197.01246459828,-3196.48043729857,-3195.94043871002,-3195.34373928481,-3194.72558938501,-3194.12222194239,-3193.37521540431,-3192.4786168895,-3191.54635557355,-3190.63304589198,-3190.00128716504,-3189.75075771015,-3189.68181977386,-3189.66375506427,-3189.58329751439,-3189.22789292048,-3188.67017964521,-3188.0957306876,-3187.57428443249,-3187.11190624221,-3186.5655075452,-3185.91536679489,-3185.16198341545,-3184.30832005797,-3183.53894750249
-3190.30980239521,-3190.30980239521,-3190.33278448071,-3190.53496179052,-3190.91701097787,-3191.48402867669,-3192.2355799186,-3193.14828504958,-3194.06855202382,-3195.00492648705,-3195.94936647719,-3196.89447703338,-3197.85128208295,-3198.84589124069,-3199.8502724842,-3200.82004532209,-3201.75515947063,-3202.6258007014,-3203.3955800395,-3204.0649173076,-3204.70044690531,-3205.35631467295,-3206.02057738867,-3206.62675750015,-3207.19321415528,-3207.70057101008,-3208.13765096367,-3208.61876933796,-3209.11496519739,-3209.38303112566,-3209.44243578071,-3209.30349941481,-3208.89364685273,-3208.34047945626,-3207.90868768051,-3207.6274575937,-3207.4582255816,-3207.40550909154,-3207.45986343815,-3207.63216212544,-3207.85543023994,-3208.08461629563,-3208.20399499314,-3207.99718230983,-3207.55209509321,-3207.11844440494,-3206.71424581419,-3206.40282300639,-3206.3416239435,-3206.3327080278,-3206.22879962559,-3206.19299008688,-3206.22226955934,-3206.29461459069,-3206.49546273268,-3206.75299340385,-3206.93883006705,-3207.11551969554,-3207.3376511935,-3207.58057810305,-3207.83039252717,-3208.0701059621,-3208.25632826768,-3208.36956268114,-3208.48747444515,-3208.70049129416,-3209.01170727313,-3209.44322311844,-3210.00220098015,-3210.59208399916,-3211.10387210448,-3211.50508126738,-3211.76970922654,-3211.87990390615,-3211.77602493941,-3211.30901959019,-3210.61358044785,-3209.91278845136,-3209.20941366576,-3208.51626627722,-3208.0206663819,-3207.66298790805,-3207.28846393638,-3207.05580396814,-3207.0221716145,-3207.08621282858,-3207.2179931776,-3207.42720732154,-3207.6103561294,-3207.87620742649,-3208.29843892252,-3208.79886279569,-3209.32288429376,-3209.83827144751,-3210.25334151492,-3210.44240596726,-3210.47007550091,-3210.32794356918,-3210.03171124112,-3209.67328445874,-3209.38849739214,-3209.15613220084,-3208.98542434333,-3208.90084581731,-3208.82049149062,-3208.73416125577,-3208.66242771892,-3208.47823685962,-3208.14063383605,-3207.72980198573,-3207.26892413293,-3206.76454340313,-3206.3456592379,-3206.14317345283,-3206.10351131901,-3206.04473603096,-3205.91111948402,-3205.80674160714,-3205.65477427298,-3205.34139023482,-3204.99865806524,-3204.71966039284,-3204.42092477916,-3204.0942890843,-3203.84303737655,-3203.66502678983,-3203.48974809757,-3203.32086055343,-3203.150569423,-3202.94412706021,-3202.72287003217,-3202.54167449519,-3202.40781625476,-3202.25929703898,-3202.05584026321,-3201.8274739276,-3201.56838697501,-3201.22435245726,-3200.79353967009,-3200.3552550947,-3199.9469164012,-3199.51693638411,-3199.00847258231,-3198.47644528261,-3197.93644669405,-3197.33974726884,-3196.72159736904,-3196.11822992642,-3195.37122338834,-3194.47462487353,-3193.54236355758,-3192.62905387601,-3191.99729514908,-3191.74676569419,-3191.67782775789,-3191.6597630483,-3191.57930549842,-3191.22390090451,-3190.66618762924,-3190.09173867164,-3189.57029241652,-3189.10791422624,-3188.56151552923,-3187.91137477892,-3187.15799139949,-3186.304328042,-3185.53495548652
-3192.30581037924,-3192.30581037924,-3192.32879246474,-3192.53096977455,-3192.91301896191,-3193.48003666072,-3194.23158790263,-3195.14429303361,-3196.06456000785,-3197.00093447108,-3197.94537446122,-3198.89048501741,-3199.84729006699,-3200.84189922472,-3201.84628046823,-3202.81605330613,-3203.75116745466,-3204.62180868543,-3205.39158802353,-3206.06092529164,-3206.69645488934,-3207.35232265698,-3208.0165853727,-3208.62276548418,-3209.18922213931,-3209.69657899411,-3210.1336589477,-3210.61477732199,-3211.11097318142,-3211.37903910969,-3211.43844376474,-3211.29950739884,-3210.88965483676,-3210.33648744029,-3209.90469566454,-3209.62346557773,-3209.45423356564,-3209.40151707557,-3209.45587142219,-3209.62817010947,-3209.85143822398,-3210.08062427967,-3210.20000297717,-3209.99319029386,-3209.54810307724,-3209.11445238897,-3208.71025379822,-3208.39883099042,-3208.33763192753,-3208.32871601183,-3208.22480760962,-3208.18899807091,-3208.21827754337,-3208.29062257472,-3208.49147071671,-3208.74900138788,-3208.93483805108,-3209.11152767957,-3209.33365917753,-3209.57658608709,-3209.82640051121,-3210.06611394613,-3210.25233625171,-3210.36557066517,-3210.48348242919,-3210.6964992782,-3211.00771525716,-3211.43923110247,-3211.99820896418,-3212.58809198319,-3213.09988008851,-3213.50108925141,-3213.76571721057,-3213.87591189018,-3213.77203292345,-3213.30502757422,-3212.60958843188,-3211.90879643539,-3211.20542164979,-3210.51227426125,-3210.01667436593,-3209.65899589208,-3209.28447192041,-3209.05181195217,-3209.01817959853,-3209.08222081261,-3209.21400116163,-3209.42321530557,-3209.60636411343,-3209.87221541052,-3210.29444690655,-3210.79487077972,-3211.31889227779,-3211.83427943154,-3212.24934949895,-3212.43841395129,-3212.46608348494,-3212.32395155321,-3212.02771922515,-3211.66929244277,-3211.38450537618,-3211.15214018487,-3210.98143232737,-3210.89685380134,-3210.81649947465,-3210.7301692398,-3210.65843570295,-3210.47424484365,-3210.13664182008,-3209.72580996976,-3209.26493211697,-3208.76055138716,-3208.34166722193,-3208.13918143686,-3208.09951930304,-3208.04074401499,-3207.90712746805,-3207.80274959117,-3207.65078225702,-3207.33739821885,-3206.99466604927,-3206.71566837687,-3206.41693276319,-3206.09029706834,-3205.83904536058,-3205.66103477386,-3205.4857560816,-3205.31686853746,-3205.14657740703,-3204.94013504425,-3204.71887801621,-3204.53768247922,-3204.40382423879,-3204.25530502302,-3204.05184824724,-3203.82348191163,-3203.56439495904,-3203.22036044129,-3202.78954765412,-3202.35126307873,-3201.94292438524,-3201.51294436814,-3201.00448056634,-3200.47245326664,-3199.93245467808,-3199.33575525288,-3198.71760535308,-3198.11423791045,-3197.36723137237,-3196.47063285757,-3195.53837154161,-3194.62506186005,-3193.99330313311,-3193.74277367822,-3193.67383574192,-3193.65577103233,-3193.57531348246,-3193.21990888854,-3192.66219561327,-3192.08774665567,-3191.56630040055,-3191.10392221028,-3190.55752351326,-3189.90738276295,-3189.15399938352,-3188.30033602603,-3187.53096347055
-3194.30181836327,-3194.30181836327,-3194.32480044878,-3194.52697775858,-3194.90902694594,-3195.47604464476,-3196.22759588666,-3197.14030101764,-3198.06056799189,-3198.99694245511,-3199.94138244525,-3200.88649300145,-3201.84329805102,-3202.83790720876,-3203.84228845226,-3204.81206129016,-3205.74717543869,-3206.61781666946,-3207.38759600757,-3208.05693327567,-3208.69246287337,-3209.34833064102,-3210.01259335673,-3210.61877346821,-3211.18523012334,-3211.69258697814,-3212.12966693173,-3212.61078530602,-3213.10698116545,-3213.37504709372,-3213.43445174877,-3213.29551538287,-3212.88566282079,-3212.33249542433,-3211.90070364858,-3211.61947356176,-3211.45024154967,-3211.3975250596,-3211.45187940622,-3211.6241780935,-3211.84744620801,-3212.0766322637,-3212.1960109612,-3211.98919827789,-3211.54411106127,-3211.110460373,-3210.70626178225,-3210.39483897446,-3210.33363991156,-3210.32472399586,-3210.22081559365,-3210.18500605494,-3210.2142855274,-3210.28663055875,-3210.48747870074,-3210.74500937192,-3210.93084603511,-3211.1075356636,-3211.32966716156,-3211.57259407112,-3211.82240849524,-3212.06212193016,-3212.24834423574,-3212.3615786492,-3212.47949041322,-3212.69250726223,-3213.00372324119,-3213.4352390865,-3213.99421694822,-3214.58409996722,-3215.09588807254,-3215.49709723545,-3215.7617251946,-3215.87191987421,-3215.76804090748,-3215.30103555825,-3214.60559641591,-3213.90480441942,-3213.20142963383,-3212.50828224529,-3212.01268234996,-3211.65500387611,-3211.28047990445,-3211.0478199362,-3211.01418758257,-3211.07822879665,-3211.21000914567,-3211.4192232896,-3211.60237209746,-3211.86822339456,-3212.29045489059,-3212.79087876375,-3213.31490026182,-3213.83028741557,-3214.24535748298,-3214.43442193532,-3214.46209146897,-3214.31995953724,-3214.02372720918,-3213.6653004268,-3213.38051336021,-3213.14814816891,-3212.9774403114,-3212.89286178537,-3212.81250745868,-3212.72617722383,-3212.65444368698,-3212.47025282769,-3212.13264980411,-3211.72181795379,-3211.260940101,-3210.75655937119,-3210.33767520596,-3210.1351894209,-3210.09552728707,-3210.03675199903,-3209.90313545209,-3209.7987575752,-3209.64679024105,-3209.33340620288,-3208.9906740333,-3208.71167636091,-3208.41294074722,-3208.08630505237,-3207.83505334461,-3207.6570427579,-3207.48176406563,-3207.31287652149,-3207.14258539106,-3206.93614302828,-3206.71488600024,-3206.53369046325,-3206.39983222282,-3206.25131300705,-3206.04785623127,-3205.81948989566,-3205.56040294307,-3205.21636842532,-3204.78555563815,-3204.34727106276,-3203.93893236927,-3203.50895235218,-3203.00048855037,-3202.46846125067,-3201.92846266211,-3201.33176323691,-3200.71361333711,-3200.11024589449,-3199.3632393564,-3198.4666408416,-3197.53437952565,-3196.62106984408,-3195.98931111714,-3195.73878166225,-3195.66984372595,-3195.65177901637,-3195.57132146649,-3195.21591687257,-3194.65820359731,-3194.0837546397,-3193.56230838459,-3193.09993019431,-3192.55353149729,-3191.90339074699,-3191.15000736755,-3190.29634401006,-3189.52697145459
-3196.29782634731,-3196.29782634731,-3196.32080843281,-3196.52298574261,-3196.90503492997,-3197.47205262879,-3198.22360387069,-3199.13630900168,-3200.05657597592,-3200.99295043914,-3201.93739042928,-3202.88250098548,-3203.83930603505,-3204.83391519279,-3205.8382964363,-3206.80806927419,-3207.74318342272,-3208.6138246535,-3209.3836039916,-3210.0529412597,-3210.6884708574,-3211.34433862505,-3212.00860134076,-3212.61478145224,-3213.18123810737,-3213.68859496218,-3214.12567491576,-3214.60679329005,-3215.10298914949,-3215.37105507775,-3215.4304597328,-3215.2915233669,-3214.88167080482,-3214.32850340836,-3213.89671163261,-3213.61548154579,-3213.4462495337,-3213.39353304364,-3213.44788739025,-3213.62018607753,-3213.84345419204,-3214.07264024773,-3214.19201894523,-3213.98520626192,-3213.5401190453,-3213.10646835703,-3212.70226976628,-3212.39084695849,-3212.32964789559,-3212.3207319799,-3212.21682357769,-3212.18101403897,-3212.21029351143,-3212.28263854279,-3212.48348668477,-3212.74101735595,-3212.92685401915,-3213.10354364763,-3213.3256751456,-3213.56860205515,-3213.81841647927,-3214.05812991419,-3214.24435221978,-3214.35758663323,-3214.47549839725,-3214.68851524626,-3214.99973122522,-3215.43124707053,-3215.99022493225,-3216.58010795125,-3217.09189605658,-3217.49310521948,-3217.75773317864,-3217.86792785824,-3217.76404889151,-3217.29704354229,-3216.60160439994,-3215.90081240345,-3215.19743761786,-3214.50429022932,-3214.00869033399,-3213.65101186014,-3213.27648788848,-3213.04382792023,-3213.0101955666,-3213.07423678068,-3213.2060171297,-3213.41523127363,-3213.59838008149,-3213.86423137859,-3214.28646287462,-3214.78688674778,-3215.31090824585,-3215.8262953996,-3216.24136546701,-3216.43042991935,-3216.45809945301,-3216.31596752127,-3216.01973519321,-3215.66130841084,-3215.37652134424,-3215.14415615294,-3214.97344829543,-3214.88886976941,-3214.80851544272,-3214.72218520787,-3214.65045167102,-3214.46626081172,-3214.12865778814,-3213.71782593783,-3213.25694808503,-3212.75256735522,-3212.33368319,-3212.13119740493,-3212.0915352711,-3212.03275998306,-3211.89914343612,-3211.79476555923,-3211.64279822508,-3211.32941418691,-3210.98668201733,-3210.70768434494,-3210.40894873125,-3210.0823130364,-3209.83106132865,-3209.65305074193,-3209.47777204966,-3209.30888450552,-3209.1385933751,-3208.93215101231,-3208.71089398427,-3208.52969844728,-3208.39584020685,-3208.24732099108,-3208.0438642153,-3207.81549787969,-3207.55641092711,-3207.21237640935,-3206.78156362218,-3206.3432790468,-3205.9349403533,-3205.50496033621,-3204.99649653441,-3204.4644692347,-3203.92447064614,-3203.32777122094,-3202.70962132114,-3202.10625387852,-3201.35924734043,-3200.46264882563,-3199.53038750968,-3198.61707782811,-3197.98531910117,-3197.73478964628,-3197.66585170999,-3197.6477870004,-3197.56732945052,-3197.21192485661,-3196.65421158134,-3196.07976262373,-3195.55831636862,-3195.09593817834,-3194.54953948133,-3193.89939873102,-3193.14601535158,-3192.2923519941,-3191.52297943862
-3198.29383433134,-3198.29383433134,-3198.31681641684,-3198.51899372664,-3198.901042914,-3199.46806061282,-3200.21961185473,-3201.13231698571,-3202.05258395995,-3202.98895842318,-3203.93339841331,-3204.87850896951,-3205.83531401908,-3206.82992317682,-3207.83430442033,-3208.80407725822,-3209.73919140675,-3210.60983263753,-3211.37961197563,-3212.04894924373,-3212.68447884144,-3213.34034660908,-3214.00460932479,-3214.61078943627,-3215.1772460914,-3215.68460294621,-3216.12168289979,-3216.60280127409,-3217.09899713352,-3217.36706306178,-3217.42646771683,-3217.28753135093,-3216.87767878885,-3216.32451139239,-3215.89271961664,-3215.61148952983,-3215.44225751773,-3215.38954102767,-3215.44389537428,-3215.61619406156,-3215.83946217607,-3216.06864823176,-3216.18802692927,-3215.98121424596,-3215.53612702933,-3215.10247634107,-3214.69827775032,-3214.38685494252,-3214.32565587962,-3214.31673996393,-3214.21283156172,-3214.177022023,-3214.20630149547,-3214.27864652682,-3214.47949466881,-3214.73702533998,-3214.92286200318,-3215.09955163167,-3215.32168312963,-3215.56461003918,-3215.8144244633,-3216.05413789823,-3216.24036020381,-3216.35359461726,-3216.47150638128,-3216.68452323029,-3216.99573920926,-3217.42725505457,-3217.98623291628,-3218.57611593528,-3219.08790404061,-3219.48911320351,-3219.75374116267,-3219.86393584228,-3219.76005687554,-3219.29305152632,-3218.59761238398,-3217.89682038748,-3217.19344560189,-3216.50029821335,-3216.00469831802,-3215.64701984417,-3215.27249587251,-3215.03983590427,-3215.00620355063,-3215.07024476471,-3215.20202511373,-3215.41123925766,-3215.59438806553,-3215.86023936262,-3216.28247085865,-3216.78289473182,-3217.30691622989,-3217.82230338363,-3218.23737345104,-3218.42643790339,-3218.45410743704,-3218.31197550531,-3218.01574317724,-3217.65731639487,-3217.37252932827,-3217.14016413697,-3216.96945627946,-3216.88487775344,-3216.80452342675,-3216.7181931919,-3216.64645965505,-3216.46226879575,-3216.12466577217,-3215.71383392186,-3215.25295606906,-3214.74857533926,-3214.32969117403,-3214.12720538896,-3214.08754325513,-3214.02876796709,-3213.89515142015,-3213.79077354327,-3213.63880620911,-3213.32542217094,-3212.98269000136,-3212.70369232897,-3212.40495671528,-3212.07832102043,-3211.82706931268,-3211.64905872596,-3211.47378003369,-3211.30489248956,-3211.13460135913,-3210.92815899634,-3210.7069019683,-3210.52570643132,-3210.39184819088,-3210.24332897511,-3210.03987219934,-3209.81150586373,-3209.55241891114,-3209.20838439338,-3208.77757160621,-3208.33928703083,-3207.93094833733,-3207.50096832024,-3206.99250451844,-3206.46047721873,-3205.92047863018,-3205.32377920497,-3204.70562930517,-3204.10226186255,-3203.35525532447,-3202.45865680966,-3201.52639549371,-3200.61308581214,-3199.9813270852,-3199.73079763031,-3199.66185969402,-3199.64379498443,-3199.56333743455,-3199.20793284064,-3198.65021956537,-3198.07577060776,-3197.55432435265,-3197.09194616237,-3196.54554746536,-3195.89540671505,-3195.14202333561,-3194.28835997813,-3193.51898742265
-3200.28984231537,-3200.28984231537,-3200.31282440087,-3200.51500171068,-3200.89705089803,-3201.46406859685,-3202.21561983876,-3203.12832496974,-3204.04859194398,-3204.98496640721,-3205.92940639735,-3206.87451695354,-3207.83132200311,-3208.82593116085,-3209.83031240436,-3210.80008524225,-3211.73519939079,-3212.60584062156,-3213.37561995966,-3214.04495722776,-3214.68048682547,-3215.33635459311,-3216.00061730883,-3216.60679742031,-3217.17325407543,-3217.68061093024,-3218.11769088383,-3218.59880925812,-3219.09500511755,-3219.36307104582,-3219.42247570087,-3219.28353933497,-3218.87368677289,-3218.32051937642,-3217.88872760067,-3217.60749751386,-3217.43826550176,-3217.3855490117,-3217.43990335831,-3217.6122020456,-3217.8354701601,-3218.06465621579,-3218.1840349133,-3217.97722222999,-3217.53213501337,-3217.0984843251,-3216.69428573435,-3216.38286292655,-3216.32166386366,-3216.31274794796,-3216.20883954575,-3216.17303000704,-3216.2023094795,-3216.27465451085,-3216.47550265284,-3216.73303332401,-3216.91886998721,-3217.0955596157,-3217.31769111366,-3217.56061802321,-3217.81043244733,-3218.05014588226,-3218.23636818784,-3218.3496026013,-3218.46751436531,-3218.68053121432,-3218.99174719329,-3219.4232630386,-3219.98224090031,-3220.57212391932,-3221.08391202464,-3221.48512118754,-3221.7497491467,-3221.85994382631,-3221.75606485957,-3221.28905951035,-3220.59362036801,-3219.89282837151,-3219.18945358592,-3218.49630619738,-3218.00070630206,-3217.64302782821,-3217.26850385654,-3217.0358438883,-3217.00221153466,-3217.06625274874,-3217.19803309776,-3217.40724724169,-3217.59039604956,-3217.85624734665,-3218.27847884268,-3218.77890271585,-3219.30292421392,-3219.81831136767,-3220.23338143508,-3220.42244588742,-3220.45011542107,-3220.30798348934,-3220.01175116128,-3219.6533243789,-3219.3685373123,-3219.136172121,-3218.96546426349,-3218.88088573747,-3218.80053141078,-3218.71420117593,-3218.64246763908,-3218.45827677978,-3218.12067375621,-3217.70984190589,-3217.24896405309,-3216.74458332329,-3216.32569915806,-3216.12321337299,-3216.08355123917,-3216.02477595112,-3215.89115940418,-3215.7867815273,-3215.63481419314,-3215.32143015498,-3214.9786979854,-3214.699700313,-3214.40096469931,-3214.07432900446,-3213.82307729671,-3213.64506670999,-3213.46978801773,-3213.30090047359,-3213.13060934316,-3212.92416698037,-3212.70290995233,-3212.52171441535,-3212.38785617492,-3212.23933695914,-3212.03588018337,-3211.80751384776,-3211.54842689517,-3211.20439237742,-3210.77357959024,-3210.33529501486,-3209.92695632136,-3209.49697630427,-3208.98851250247,-3208.45648520277,-3207.91648661421,-3207.319787189,-3206.7016372892,-3206.09826984658,-3205.3512633085,-3204.45466479369,-3203.52240347774,-3202.60909379617,-3201.97733506924,-3201.72680561435,-3201.65786767805,-3201.63980296846,-3201.55934541858,-3201.20394082467,-3200.6462275494,-3200.0717785918,-3199.55033233668,-3199.0879541464,-3198.54155544939,-3197.89141469908,-3197.13803131965,-3196.28436796216,-3195.51499540668
